# .PCD v0.7 - Point Cloud Data file format
VERSION 0.7
FIELDS x y z
SIZE 4 4 4
TYPE F F F
COUNT 1 1 1
WIDTH 105
HEIGHT 1
VIEWPOINT 0 0 0 1 0 0 0
POINTS 105
DATA ascii
0.084417149 0.10365142 0.74800009
0.0060567069 0.087545596 0.75554162
0.014688084 0.086792223 0.75589204
0.025314532 0.087400548 0.75522596
0.034636904 0.087457083 0.75633335
0.045395739 0.088007435 0.75657141
0.055097464 0.087578088 0.75788897
0.06549871 0.086871684 0.75727278
0.075881727 0.087280951 0.75740004
0.082540311 0.085804693 0.75626665
0.0061839633 0.094971918 0.75348675
0.015033586 0.095207848 0.75167358
0.025123674 0.095454574 0.75361246
0.03537479 0.095139109 0.7545476
0.045410316 0.09517964 0.75405765
0.055403385 0.094971478 0.75548249
0.0654734 0.094970822 0.75546473
0.075525403 0.094944574 0.75526828
0.082348183 0.094555914 0.75450003
0.006672441 0.1050363 0.75281268
0.015000585 0.10500596 0.75004089
0.025018986 0.10506985 0.75051022
0.035093471 0.10528231 0.75202048
0.04512164 0.1052789 0.75200009
0.055103607 0.10530119 0.75346822
0.065433338 0.10498093 0.75500053
0.075563505 0.10514328 0.75375581
0.082863696 0.10595479 0.75147825
0.0070907795 0.11464156 0.75364012
0.015053765 0.11470638 0.75273848
0.025094992 0.11472181 0.7528336
0.035160687 0.11480351 0.75338125
0.045231767 0.11488138 0.75388134
0.055485319 0.11472428 0.75436401
0.065435164 0.1143318 0.75502098
0.075309634 0.11460774 0.75497866
0.083685175 0.11464182 0.75388902
0.0067114593 0.12451681 0.75600004
0.015119088 0.12455296 0.75593919
0.025197046 0.1245499 0.75591856
0.035027269 0.12404331 0.75630248
0.045261841 0.12295382 0.75662488
0.055471767 0.12247102 0.7564286
0.065509364 0.12275997 0.75643325
0.074500404 0.12279837 0.75685698
0.083477557 0.12238269 0.75643754
0.0036095241 0.1306648 0.75800002
0.0080323815 0.077204905 0.76685715
0.015353 0.076337412 0.76578385
0.024782414 0.077049971 0.76532143
0.035182714 0.077083543 0.76548153
0.044655975 0.077233344 0.76588887
0.054328617 0.077661395 0.76570839
0.064709157 0.077972472 0.76585716
0.075975895 0.077069364 0.76603574
0.081839666 0.076333664 0.76335728
0.0070074298 0.08269722 0.76126683
0.016060853 0.081902266 0.76105267
0.025193753 0.0823645 0.76104003
0.035790958 0.082711771 0.76135719
0.044933956 0.08323998 0.76141399
0.054782301 0.08283297 0.76134485
0.063962907 0.082586206 0.76119226
0.07432384 0.08306504 0.76099998
0.081629805 0.081422172 0.76042861
0.0057904767 0.1295619 0.76000011
0.037413973 0.12937747 0.76033336
0.045622148 0.12844965 0.76037508
0.054321427 0.12801811 0.76050007
0.063790999 0.1276492 0.76036376
0.076134577 0.12764557 0.76043761
0.081965238 0.12759559 0.76050001
0.0074589183 0.13481137 0.76250005
0.015354904 0.13483252 0.76214999
0.02523 0.1348678 0.7623502
0.035093792 0.13421555 0.76306456
0.044846937 0.13542917 0.76471049
0.054841515 0.13517915 0.76500005
0.065363802 0.13385235 0.76588893
0.074510247 0.13464518 0.76457143
0.081650861 0.13313752 0.76140004
0.046811432 0.1411657 0.76800001
0.05304667 0.1402467 0.76300001
0.048588574 0.069938101 0.77300012
0.055141196 0.069150716 0.77450013
0.065258093 0.068967618 0.77866668
0.075403892 0.068690479 0.77554554
0.080244757 0.069938101 0.77300012
-0.0012928572 0.07599809 0.77474999
0.0039855787 0.075447895 0.77128571
0.015330398 0.071967706 0.77241665
0.026288765 0.073365845 0.77399999
0.034037147 0.073219627 0.77139992
0.045343079 0.07308773 0.7715295
0.055768341 0.072804265 0.7722069
0.065495938 0.072981767 0.77273542
0.0742158 0.07246238 0.771577
0.0814 0.071133338 0.76999998
0.00073523808 0.080140963 0.77200001
0.038866669 0.13860001 0.76999998
0.063853972 0.1382311 0.77066666
0.0051333341 0.1408 0.76999998
0.038967621 0.1404305 0.77200001
0.042386662 0.14094666 0.76999998
0.066 0.1400667 0.76999998
