# .PCD v0.7 - Point Cloud Data file format
VERSION 0.7
FIELDS x y z
SIZE 4 4 4
TYPE F F F
COUNT 1 1 1
WIDTH 263
HEIGHT 1
VIEWPOINT 0 0 0 1 0 0 0
POINTS 263
DATA ascii
-0.036641747 0.086063184 0.62900007
-0.043490615 0.078044549 0.6371429
-0.035115391 0.077493899 0.63571876
-0.024508083 0.076777786 0.63629806
-0.018691842 0.076766953 0.63900012
-0.043546189 0.084365204 0.63458014
-0.034604277 0.084488891 0.63222033
-0.025313361 0.08428394 0.63563496
-0.018865719 0.08215715 0.63900012
-0.042013284 0.09391129 0.63655007
-0.035273924 0.094693124 0.63554728
-0.028433455 0.091384411 0.63862509
-0.034688573 0.1004143 0.63900012
-0.044545144 0.069592185 0.64779997
-0.033928812 0.069298804 0.6477499
-0.02434794 0.068638191 0.64761895
-0.015769931 0.069074012 0.64757138
-0.0044253008 0.068380497 0.64734775
0.0012314285 0.068960473 0.64649999
-0.054274384 0.075466871 0.64488679
-0.04592545 0.073931925 0.64331371
-0.035155043 0.072831489 0.64344215
-0.02520516 0.072413892 0.6445806
-0.01436497 0.074674204 0.64291674
-0.0057208329 0.074243523 0.64670825
0.001026984 0.071272701 0.64700001
-0.053243328 0.083871678 0.64403337
-0.048408505 0.086524971 0.64107138
-0.021718914 0.088539056 0.64114285
-0.0149522 0.084430702 0.6446597
-0.0092500001 0.081400476 0.64750004
-0.051222861 0.091337144 0.648
-0.046803094 0.094947219 0.64421225
-0.032354608 0.099100642 0.64099997
-0.024943905 0.09501937 0.64466012
-0.018384952 0.091432571 0.64780003
-0.04267358 0.10345253 0.6446501
-0.035078358 0.10501073 0.64382547
-0.028234283 0.10198288 0.648
-0.036694761 0.1115825 0.64678568
-0.063920006 0.059533339 0.65800011
-0.064747944 0.065456584 0.65548223
-0.054878548 0.066714704 0.65322918
-0.044640154 0.065924451 0.65336961
-0.034962375 0.064621307 0.65329844
-0.025091631 0.064395435 0.65321434
-0.014560389 0.064729355 0.6524902
-0.007598965 0.064642854 0.653
-0.062439121 0.073558852 0.6541428
-0.058127619 0.071398102 0.65028572
-0.0028925398 0.078160323 0.65133339
-0.061287999 0.081842676 0.65800011
-0.057355776 0.086681053 0.65533328
-0.011959286 0.088243574 0.65250003
-0.0049526282 0.084371917 0.65386975
0.0010402118 0.084620319 0.65488899
-0.053749494 0.094918817 0.65434492
-0.048904769 0.099047631 0.64999998
-0.021694696 0.099090345 0.65085709
-0.014549177 0.095112905 0.65371174
-0.0094000008 0.091493338 0.65800011
-0.050891433 0.10345557 0.65700006
-0.046965033 0.10605008 0.65382761
-0.030356664 0.10903665 0.6505
-0.024616113 0.10559746 0.65316671
-0.017398153 0.10237934 0.65664709
-0.043661319 0.11459753 0.65458971
-0.034329072 0.11613691 0.65225005
-0.026763462 0.11347565 0.65585184
-0.042033814 0.12335977 0.65625006
-0.03619954 0.12360235 0.6557743
-0.061567049 0.058796763 0.66100007
-0.054645602 0.058017775 0.6632728
-0.045117915 0.057395592 0.66590261
-0.035007562 0.056858867 0.66531259
-0.025211476 0.056207154 0.6652931
-0.017227618 0.056810532 0.66518754
-0.0094285719 0.059714291 0.66000003
-0.061017621 0.061646193 0.66050005
-0.054948073 0.062141996 0.66099989
-0.046025772 0.061872277 0.6609413
-0.035409525 0.060971428 0.66000003
-0.024948569 0.061152179 0.6604445
-0.015736327 0.061050616 0.6608572
-0.071097143 0.077063136 0.66400003
-0.067136191 0.075775333 0.66093099
-0.070299998 0.080433331 0.66500002
-0.064626008 0.084581435 0.66400009
-0.059714291 0.088628583 0.66000003
-0.0037726983 0.088882864 0.66033334
0.00062857138 0.088628583 0.66000003
-0.062885925 0.09398222 0.66578269
-0.058426969 0.095456041 0.66189468
-0.011314285 0.099942863 0.66000003
-0.0048612524 0.094953492 0.66347378
0.001095671 0.095143989 0.66554552
-0.06052858 0.1000314 0.66900003
-0.055056166 0.1050522 0.66437852
-0.02074286 0.1087429 0.66000003
-0.014251609 0.10626254 0.66337848
-0.0068115941 0.10280894 0.66652173
-0.052485175 0.11410739 0.66673911
-0.04789944 0.11670119 0.66175002
-0.023210077 0.11621441 0.66288459
-0.017214146 0.11353353 0.66596293
-0.050813906 0.12136743 0.66860008
-0.045720629 0.12513705 0.66311538
-0.033228211 0.12682931 0.66190481
-0.025747981 0.12434155 0.66610014
-0.019496571 0.12194916 0.66900003
-0.042228024 0.13476466 0.66594744
-0.035975538 0.13423139 0.66534799
-0.029286189 0.13115382 0.66850007
-0.040139999 0.1408086 0.66900003
-0.038228575 0.1408086 0.66900003
-0.033950843 0.048971944 0.67453849
-0.027336193 0.048900958 0.67266673
-0.043606766 0.053119995 0.67040002
-0.035325557 0.05155614 0.67184204
-0.026539223 0.051160526 0.67072731
-0.071735404 0.087749042 0.67249995
-0.068000071 0.087686591 0.67041665
-0.072633401 0.092590816 0.67578572
-0.068178989 0.094565563 0.67538887
-0.063359052 0.10527271 0.6754517
-0.059321433 0.10733509 0.67216676
-0.0038994167 0.1062518 0.67219371
0.001324 0.10476235 0.67260003
-0.062173862 0.11265935 0.67766666
-0.056856155 0.11529083 0.67269564
-0.013433088 0.11613597 0.67177784
-0.0053757904 0.11419211 0.67586017
0.00064428576 0.11339667 0.67650008
-0.052895922 0.12506744 0.67376184
-0.048550241 0.12776215 0.67075002
-0.022387622 0.12836351 0.67166668
-0.01549444 0.12444151 0.67488378
-0.0093730949 0.12185215 0.67875004
-0.051657908 0.13340458 0.67799997
-0.047307406 0.13532375 0.67363334
-0.032012988 0.13811134 0.67109096
-0.024769926 0.13485467 0.67478007
-0.043765143 0.14458288 0.67540008
-0.034671307 0.14513522 0.67427993
-0.026700174 0.14313568 0.67781818
-0.041541904 0.15195841 0.67799997
-0.036883812 0.15206158 0.67749995
-0.071977422 0.098284893 0.68085718
-0.067352384 0.099085711 0.68000001
-0.071453817 0.10360312 0.68330008
-0.068085767 0.10395795 0.68152636
-0.070212379 0.1122086 0.68899995
-0.064821444 0.11501311 0.68414277
-0.058285709 0.1191619 0.68000001
-0.0032395236 0.11865953 0.68083334
0.0013009526 0.1190371 0.68300003
-0.061702952 0.12287281 0.68590903
-0.057590246 0.12542093 0.68233341
-0.011969524 0.12814367 0.68199998
-0.004939999 0.12454525 0.68465859
0.001822657 0.12480881 0.68610519
-0.055375874 0.13407736 0.6848889
-0.020738572 0.13869289 0.68050003
-0.015151905 0.13455017 0.6835953
-0.0095147612 0.13255048 0.68900001
0.001968571 0.1305819 0.68900001
-0.050950006 0.14369793 0.68583339
-0.047732506 0.14676772 0.68187493
-0.03173333 0.1496 0.68000001
-0.023435859 0.14584951 0.68460882
-0.017540693 0.14218242 0.68681812
-0.044550955 0.15512674 0.68533331
-0.03430061 0.15592951 0.68391669
-0.02764714 0.15394853 0.68677276
-0.042195279 0.16438803 0.68795002
-0.037175115 0.16394125 0.68726671
-0.07202106 0.11572298 0.69166684
-0.067876577 0.11746895 0.69060004
-0.071726039 0.12330794 0.6973334
-0.066246398 0.12549105 0.69529045
-0.0037805953 0.12903441 0.69037503
-0.062297631 0.13431826 0.69510001
-0.057378739 0.13713683 0.69116664
-0.01249111 0.13916223 0.69033337
-0.0052368259 0.13532077 0.69400012
0.00066317461 0.13329937 0.69633341
-0.061808098 0.14133923 0.69783336
-0.055220991 0.14500019 0.69231439
-0.021446478 0.14829257 0.69080007
-0.014549096 0.14551592 0.69358081
-0.0082046157 0.1425696 0.69576931
-0.052827764 0.15439753 0.69436002
-0.048397548 0.1562815 0.69071436
-0.023254665 0.15574367 0.69253349
-0.017993392 0.15382613 0.69656253
-0.051150002 0.16208619 0.69749999
-0.046779633 0.16550969 0.69323093
-0.033126507 0.16608137 0.69108349
-0.026760558 0.16394389 0.69479316
-0.042983968 0.1731469 0.69431573
-0.035640623 0.17338526 0.69473916
-0.029414607 0.17096065 0.69666672
-0.072787084 0.12620626 0.70114285
-0.071778096 0.13263001 0.70600003
-0.066640005 0.13521697 0.70320004
-0.062978484 0.14565822 0.70393336
-0.058836199 0.14909145 0.70200002
-0.01133333 0.14866669 0.69999999
-0.0049339472 0.1460254 0.70154846
-0.061570317 0.15280238 0.70783335
-0.058061101 0.1543657 0.70446151
-0.01310986 0.15540668 0.70275694
-0.005084435 0.15380219 0.70615637
-0.053551286 0.1667529 0.70545006
-0.050000001 0.16666666 0.69999999
-0.022637596 0.16650657 0.70242107
-0.017143643 0.16396137 0.7054348
-0.052139048 0.17365284 0.70637506
-0.046035714 0.17727898 0.70272225
-0.033556394 0.17770547 0.70105261
-0.025488835 0.17374799 0.70513791
-0.019540481 0.17114809 0.70749998
-0.05057143 0.18138285 0.708
-0.044598956 0.18426988 0.70460016
-0.035594929 0.18433616 0.70346522
-0.04240064 0.19091241 0.70666665
-0.037724447 0.19176634 0.70733333
-0.073472515 0.13762419 0.71076924
-0.069196843 0.13861907 0.70999998
-0.073021136 0.14442998 0.71406251
-0.067551009 0.14527829 0.7124446
-0.071894608 0.15129685 0.7166667
-0.064879782 0.15510066 0.71303344
-0.05882857 0.15890481 0.70999998
-0.0035179048 0.15849812 0.71060002
0.00067904772 0.15957621 0.71300012
-0.0625109 0.16381143 0.71599996
-0.057673987 0.16459329 0.71242118
-0.012829742 0.16656923 0.71207702
-0.0057018152 0.16429292 0.71503121
-0.056020003 0.17541339 0.71405262
-0.023811111 0.1780892 0.71100003
-0.015454099 0.17438537 0.71468568
-0.0084301597 0.170646 0.71766663
-0.052388258 0.18463586 0.71433336
-0.049092859 0.18790859 0.71100003
-0.031373333 0.18802035 0.71099997
-0.02541743 0.18481255 0.71399993
-0.018609334 0.18254265 0.71839994
-0.073044688 0.1570964 0.72615379
-0.069200478 0.15803048 0.72300005
-0.072067991 0.16423392 0.72761106
-0.067085959 0.16556284 0.72465003
-0.0041257152 0.1698419 0.72200012
-0.070817143 0.1701 0.72899997
-0.06421034 0.174289 0.72600013
-0.059324291 0.17774142 0.7215001
-0.011824656 0.1781525 0.72100013
-0.0048569427 0.17553528 0.7235263
0.00069047621 0.17745237 0.72500008
-0.07449238 0.16638951 0.73100001
-0.070593715 0.17362992 0.73100001
-0.06798552 0.17706916 0.73140013
