# .PCD v0.7 - Point Cloud Data file format
VERSION 0.7
FIELDS x y z rgb
SIZE 4 4 4 4
TYPE F F F U
COUNT 1 1 1 1
WIDTH 579
HEIGHT 1
VIEWPOINT 0 0 0 1 0 0 0
POINTS 579
DATA ascii
0.068288893 -0.002229841 0.87800008 4283100201
0.075272769 -0.0031152812 0.87731838 4283100201
0.084588215 -0.0030625849 0.87609529 4283100201
0.095108561 -0.0025047616 0.87600005 4283100201
0.10484016 -0.0024063305 0.87570596 4283100201
0.11519905 -0.0016704759 0.87650013 4283100201
0.12467562 -0.0015045714 0.8774001 4283100201
0.1329543 -0.00083619048 0.87800002 4283100201
0.068567619 0.00083619048 0.87800002 4283100201
0.075382881 0.0047670873 0.87720603 4283100201
0.084853165 0.004990634 0.87349969 4283100201
0.094800577 0.0049888361 0.87316632 4283100201
0.10475997 0.0049885712 0.87299967 4283100201
0.11477436 0.0049893651 0.87327749 4283100201
0.12507564 0.0050024875 0.87550002 4283100201
0.13278705 0.002843047 0.87800014 4283100201
0.077549733 0.012167092 0.87766677 4283100201
0.085512385 0.013058414 0.87495244 4283100201
0.095239788 0.014111332 0.8748275 4283100201
0.10514241 0.014636449 0.87554538 4283100201
0.11460908 0.01406976 0.87610722 4283100201
0.12404867 0.011870192 0.87770015 4283100201
0.057376951 -0.011340382 0.88860005 4283100201
0.064978257 -0.012122856 0.88800007 4283100201
0.073748 -0.011671236 0.88800001 4283100201
0.082126677 -0.011006671 0.88900012 4283100201
0.10244665 -0.01100667 0.88900012 4283100201
0.117348 -0.011345336 0.88900012 4283100201
0.12488333 -0.011430002 0.88900006 4283100201
0.13546667 -0.011006669 0.88900012 4283100201
0.049652386 -0.0042330157 0.88866669 4283100201
0.055685613 -0.0050670365 0.88599992 4283100201
0.064879581 -0.0056015556 0.88170022 4283100201
0.075420275 -0.0080352379 0.88128573 4283100201
0.086215377 -0.0076884362 0.88257158 4283100201
0.095204316 -0.0075878431 0.88464713 4283100201
0.10517232 -0.0075037563 0.88583338 4283100201
0.11494032 -0.0067425389 0.88416654 4283100201
0.12509841 -0.0065012951 0.88348013 4283100201
0.13501711 -0.0056835627 0.88374209 4283100201
0.14450552 -0.0041585881 0.88444835 4283100201
0.15483736 -0.0037680948 0.88795453 4283100201
0.049897145 0.001692381 0.88800007 4283100201
0.055645354 0.0050622215 0.88538885 4283100201
0.065207727 0.0052791042 0.88047093 4283100201
0.072076194 0.0092190476 0.88000011 4283100201
0.1359334 0.0061225714 0.88050002 4283100201
0.14461882 0.0050471406 0.88283342 4283100201
0.15383038 0.0039853058 0.88723809 4283100201
0.056489885 0.012800952 0.88862503 4283100201
0.06535089 0.014881985 0.88597143 4283100201
0.074492142 0.016259311 0.88227594 4283100201
0.084822491 0.017837841 0.88066673 4283100201
0.094465315 0.018797278 0.88000011 4283100201
0.1047619 0.019276191 0.88000011 4283100201
0.11721358 0.018318366 0.88000011 4283100201
0.1254497 0.016380873 0.88095671 4283100201
0.1347896 0.01533678 0.88291192 4283100201
0.14425893 0.013760561 0.8876819 4283100201
0.1515533 0.01100667 0.88900012 4283100201
0.067074813 0.02286 0.88900006 4283100201
0.074525043 0.024300473 0.88790011 4283100201
0.084893964 0.025214612 0.88539463 4283100201
0.095146976 0.025251634 0.88286519 4283100201
0.10501233 0.025207732 0.88211787 4283100201
0.11469079 0.025449606 0.88355875 4283100201
0.12477513 0.025300639 0.8852222 4283100201
0.13433266 0.023748271 0.88759094 4283100201
0.1413933 0.021166669 0.88900012 4283100201
0.071120001 0.03132667 0.88900012 4283100201
0.088182673 0.032667242 0.88860005 4283100201
0.094932005 0.033337526 0.88839996 4283100201
0.10449012 0.03278631 0.88837504 4283100201
0.11486444 0.032314446 0.889 4283100201
0.12276667 0.031750005 0.88900012 4283100201
0.037706453 -0.014153015 0.89755565 4283100201
0.044357907 -0.014506794 0.89573365 4283100201
0.054167911 -0.015564733 0.89430022 4283100201
0.064468578 -0.016283363 0.89411759 4283100201
0.075660177 -0.01620684 0.89536363 4283100201
0.085241236 -0.014496549 0.89504176 4283100201
0.095383167 -0.013399092 0.89422739 4283100201
0.10536478 -0.013863202 0.89418203 4283100201
0.11469039 -0.014212081 0.89415789 4283100201
0.12572654 -0.015034286 0.89333332 4283100201
0.13484026 -0.015653251 0.89339131 4283100201
0.14485694 -0.014239816 0.89550018 4283100201
0.1552261 -0.013553374 0.89660883 4283100201
0.16164 -0.0111181 0.89800012 4283100201
0.037567142 -0.0051214281 0.89650005 4283100201
0.04409042 -0.0051270491 0.89282894 4283100201
0.050065711 -0.0093342857 0.89099997 4283100201
0.14646344 -0.0089948568 0.89099997 4283100201
0.15425402 -0.0086648576 0.89189994 4283100201
0.16387922 -0.0054220189 0.89488024 4283100201
0.038058102 0.0021380954 0.89800012 4283100201
0.044527933 0.0049116239 0.89420611 4283100201
0.050065711 0.0067885714 0.89099997 4283100201
0.1574309 0.0076512173 0.89244437 4283100201
0.16240406 0.0039853174 0.8959167 4283100201
0.04640181 0.014846076 0.89676201 4283100201
0.053229269 0.016766839 0.89236373 4283100201
0.06081428 0.018951425 0.89099997 4283100201
0.14690229 0.017833143 0.89159995 4283100201
0.1549304 0.01522762 0.8952145 4283100201
0.16164 0.0111181 0.89800012 4283100201
0.048748579 0.02138095 0.89800012 4283100201
0.055712238 0.024809744 0.89576942 4283100201
0.063683987 0.026353691 0.89248168 4283100201
0.075037964 0.02945755 0.89099991 4283100201
0.13615742 0.028352285 0.8912999 4283100201
0.14490555 0.025632933 0.89412928 4283100201
0.15298612 0.023076762 0.89740008 4283100201
0.05901143 0.031643812 0.89800012 4283100201
0.066573173 0.034018319 0.89688236 4283100201
0.075158678 0.03515194 0.89389306 4283100201
0.08435604 0.03541759 0.89192331 4283100201
0.094827861 0.03839786 0.89099985 4283100201
0.10522285 0.037620004 0.89099991 4283100201
0.11561508 0.036401436 0.89116657 4283100201
0.12551151 0.035245284 0.89263648 4283100201
0.13403121 0.034435194 0.89638102 4283100201
0.14326857 0.032366805 0.89771444 4283100201
0.068419054 0.040196192 0.89800012 4283100201
0.076229937 0.042858135 0.89742863 4283100201
0.085439555 0.044406608 0.8965885 4283100201
0.095287859 0.045051336 0.89472431 4283100201
0.10470189 0.045007404 0.89546174 4283100201
0.11437967 0.04353587 0.89626676 4283100201
0.12447444 0.042858433 0.89640009 4283100201
0.13142157 0.040766355 0.89800006 4283100201
0.028537139 -0.02161905 0.90800011 4283100201
0.035056323 -0.023882177 0.90628576 4283100201
0.044830713 -0.022417858 0.90525001 4283100201
0.054923307 -0.023179103 0.90523523 4283100201
0.064786993 -0.022363914 0.90700001 4283100201
0.075402342 -0.022206841 0.90627271 4283100201
0.084975846 -0.022521298 0.90627271 4283100201
0.094776206 -0.021539683 0.9046666 4283100201
0.10511208 -0.021539683 0.9046666 4283100201
0.11528214 -0.022195477 0.90499997 4283100201
0.12452745 -0.022392208 0.90745455 4283100201
0.13475539 -0.022317585 0.90392303 4283100201
0.1452477 -0.022700399 0.90508324 4283100201
0.15540001 -0.022448093 0.90649992 4283100201
0.1621089 -0.022171745 0.90700006 4283100201
0.028537139 -0.015565716 0.90800005 4283100201
0.033216156 -0.015895098 0.90296298 4283100201
0.044620957 -0.019736188 0.90100002 4283100201
0.054918095 -0.019736189 0.90100002 4283100201
0.065215237 -0.019736188 0.90100002 4283100201
0.07379619 -0.019736189 0.90100002 4283100201
0.085686937 -0.019245848 0.90100002 4283100201
0.094273791 -0.018696927 0.90176928 4283100201
0.10478365 -0.018896351 0.90183336 4283100201
0.11509097 -0.018896351 0.9018333 4283100201
0.12481525 -0.019084761 0.90259999 4283100201
0.13540745 -0.019736189 0.90100002 4283100201
0.14580069 -0.019252108 0.90128571 4283100201
0.15460081 -0.018896351 0.90183336 4283100201
0.1653109 -0.015643517 0.90355194 4283100201
0.17517225 -0.015401796 0.90531451 4283100201
0.028537139 -0.0077828579 0.90800017 4283100201
0.032678973 -0.0051582539 0.90308332 4283100201
0.1687766 -0.0036043809 0.90139997 4283100201
0.17481925 -0.0053724418 0.90256244 4283100201
0.035401721 0.0050458959 0.90466672 4283100201
0.040330481 0.008580952 0.90100002 4283100201
0.16691171 0.0056500682 0.90271425 4283100201
0.17182057 0.0039760005 0.9066 4283100201
0.037488777 0.013136402 0.90611106 4283100201
0.041899685 0.016225273 0.90279996 4283100201
0.1587476 0.018878095 0.90100002 4283100201
0.16467009 0.014740453 0.90473688 4283100201
0.17727619 0.01643048 0.90800017 4283100201
0.045955334 0.024576858 0.9054001 4283100201
0.051886123 0.02686408 0.90157145 4283100201
0.15678702 0.026084635 0.90286666 4283100201
0.1615324 0.023324763 0.90700006 4283100201
0.048426669 0.031996194 0.90800005 4283100201
0.054882485 0.034824971 0.90461308 4283100201
0.063037001 0.036502056 0.90100002 4283100201
0.13836783 0.037112623 0.90100002 4283100201
0.14578792 0.035939001 0.901842 4283100201
0.15319149 0.032905895 0.90618747 4283100201
0.057641428 0.043612026 0.90674996 4283100201
0.06512244 0.044954259 0.90255904 4283100201
0.074103564 0.046866477 0.90126669 4283100201
0.081519037 0.04891143 0.90100002 4283100201
0.1089781 0.04891143 0.90100002 4283100201
0.11502892 0.048929524 0.90133333 4283100201
0.12542151 0.048107617 0.90199995 4283100201
0.13502355 0.045013253 0.90346175 4283100201
0.14415374 0.043251969 0.90586966 4283100201
0.1513333 0.041508578 0.90800011 4283100201
0.067261778 0.051466119 0.90714294 4283100201
0.075790592 0.053741556 0.90520835 4283100201
0.084562249 0.055269856 0.90335304 4283100201
0.094507515 0.054988891 0.90211129 4283100201
0.10513299 0.055155728 0.90480572 4283100201
0.11497352 0.054863911 0.9059357 4283100201
0.12413037 0.054700438 0.90646452 4283100201
0.13166004 0.052966665 0.90800005 4283100201
0.078693338 0.0613981 0.90800011 4283100201
0.085995249 0.062661432 0.90750003 4283100201
0.094709836 0.062700577 0.90679997 4283100201
0.10429027 0.062435813 0.90800011 4283100201
0.1150133 0.062262863 0.90800011 4283100201
0.027494285 -0.030986667 0.91650009 4283100201
0.034467794 -0.031299651 0.91518188 4283100201
0.046099365 -0.031557772 0.91616672 4283100201
0.054570768 -0.032018971 0.91623086 4283100201
0.063984081 -0.030806666 0.91671449 4283100201
0.077726677 -0.03056667 0.91700011 4283100201
0.15807335 -0.03056667 0.91700011 4283100201
0.16244 -0.03056667 0.91700011 4283100201
0.026104873 -0.024852699 0.91377777 4283100201
0.033425923 -0.027840108 0.91033334 4283100201
0.045154709 -0.026921274 0.91177773 4283100201
0.055886157 -0.027576415 0.91138458 4283100201
0.065187022 -0.02673048 0.91262501 4283100201
0.074434802 -0.026613001 0.91305006 4283100201
0.084807441 -0.026750537 0.91331249 4283100201
0.095248476 -0.025313757 0.91288882 4283100201
0.10484908 -0.025539048 0.91341174 4283100201
0.1143158 -0.025580062 0.91346669 4283100201
0.12495199 -0.026434414 0.91493332 4283100201
0.13496611 -0.026914679 0.91499996 4283100201
0.14486296 -0.027073393 0.91341174 4283100201
0.15516113 -0.027084038 0.91376466 4283100201
0.16565116 -0.025657894 0.91304165 4283100201
0.17485522 -0.024344217 0.91428578 4283100201
0.18167907 -0.022966033 0.91566676 4283100201
0.025320729 -0.015398039 0.91323525 4283100201
0.1707333 -0.01993333 0.91000003 4283100201
0.18173049 -0.01999905 0.91299999 4283100201
0.026617782 -0.0046961266 0.91346669 4283100201
0.027980691 0.0048378357 0.91554552 4283100201
0.031469699 0.0065483111 0.91100001 4283100201
0.17651361 0.0058446787 0.9106521 4283100201
0.028820001 0.01135333 0.91700011 4283100201
0.034113333 0.015906544 0.91247827 4283100201
0.16776046 0.018448096 0.91149998 4283100201
0.1748966 0.015125873 0.91175002 4283100201
0.036026333 0.024437353 0.91495663 4283100201
0.042111322 0.026501803 0.9106667 4283100201
0.16636911 0.02513529 0.91315001 4283100201
0.17471179 0.022841144 0.91540003 4283100201
0.037760954 0.032086663 0.91675013 4283100201
0.044825181 0.034919862 0.91237044 4283100201
0.051133331 0.039000001 0.91000003 4283100201
0.15707625 0.036632448 0.9126429 4283100201
0.16217265 0.033273432 0.91449994 4283100201
0.048463944 0.044855375 0.91571438 4283100201
0.053662956 0.04620105 0.91180003 4283100201
0.13866664 0.049400002 0.91000003 4283100201
0.14687628 0.047851831 0.91074997 4283100201
0.15431972 0.045458049 0.9132632 4283100201
0.04978 0.051526669 0.91700011 4283100201
0.056466173 0.053995196 0.91515803 4283100201
0.064179085 0.055648416 0.9123044 4283100201
0.073258616 0.058277488 0.9108181 4283100201
0.1187333 0.059799999 0.91000003 4283100201
0.12711109 0.059222221 0.91000003 4283100201
0.13558154 0.055855244 0.91078252 4283100201
0.14455365 0.054763328 0.9150002 4283100201
0.15228549 0.052157141 0.91580009 4283100201
0.065960534 0.062663808 0.91666669 4283100201
0.074662179 0.065314189 0.91516674 4283100201
0.084266409 0.066606507 0.9121666 4283100201
0.09574794 0.067170292 0.91119993 4283100201
0.10521302 0.066693023 0.91099995 4283100201
0.11459988 0.06533926 0.91207141 4283100201
0.1245295 0.064721704 0.91284007 4283100201
0.13467683 0.063300066 0.91546667 4283100201
0.14194265 0.060932379 0.91660011 4283100201
0.06899333 0.070740007 0.91700011 4283100201
0.075652495 0.07237751 0.917 4283100201
0.085792743 0.072367869 0.916875 4283100201
0.095700875 0.073631242 0.91600001 4283100201
0.10428195 0.073630884 0.91644007 4283100201
0.11561589 0.071814872 0.91700006 4283100201
0.12313999 0.071987629 0.91700017 4283100201
0.016985478 -0.032428335 0.92650002 4283100201
0.024378747 -0.034217793 0.92331815 4283100201
0.035420556 -0.035887022 0.92368418 4283100201
0.044876982 -0.035793275 0.92188239 4283100201
0.055302858 -0.036531728 0.92169231 4283100201
0.064797156 -0.035043336 0.92440003 4283100201
0.075541332 -0.033132754 0.92350006 4283100201
0.084888153 -0.033432901 0.92364997 4283100201
0.095347263 -0.03277494 0.92473692 4283100201
0.10498811 -0.032810081 0.92310536 4283100201
0.11498015 -0.032681428 0.92425007 4283100201
0.12497128 -0.033447538 0.92408329 4283100201
0.13511792 -0.033284761 0.92400002 4283100201
0.14481437 -0.033825945 0.92379999 4283100201
0.15496017 -0.034147952 0.92334783 4283100201
0.16452368 -0.03355201 0.92161113 4283100201
0.17471965 -0.032658935 0.92362505 4283100201
0.18247122 -0.032380193 0.92379999 4283100201
0.016969465 -0.025126252 0.92568755 4283100201
0.021430952 -0.025068099 0.92121428 4283100201
0.088495232 -0.02891429 0.92000002 4283100201
0.094843805 -0.028926859 0.92040002 4283100201
0.10531807 -0.028914291 0.91999996 4283100201
0.11478096 -0.028914291 0.91999996 4283100201
0.12354287 -0.02891429 0.92000002 4283100201
0.1323048 -0.02891429 0.92000002 4283100201
0.17619163 -0.028576383 0.92040002 4283100201
0.18423757 -0.027108844 0.92242861 4283100201
0.018476 -0.014955619 0.92380011 4283100201
0.021037329 -0.014901717 0.92040002 4283100201
0.018540001 -0.0061800005 0.92699993 4283100201
0.021969367 -0.0052690478 0.92283332 4283100201
0.023531431 0.0049079368 0.92504764 4283100201
0.027250919 0.014946301 0.92315388 4283100201
0.03066667 0.0184 0.92000002 4283100201
0.028346289 0.023949143 0.92440003 4283100201
0.031572856 0.025787141 0.92089999 4283100201
0.1691048 0.02891429 0.92000002 4283100201
0.17348953 0.029060958 0.92466664 4283100201
0.02913429 0.031782858 0.92699999 4283100201
0.034867223 0.035606194 0.92308336 4283100201
0.041765079 0.038844444 0.92000002 4283100201
0.16605191 0.035877619 0.92250007 4283100201
0.17102419 0.032299243 0.92659998 4283100201
0.038033333 0.04427319 0.92546165 4283100201
0.04380253 0.045560908 0.92175007 4283100201
0.1587054 0.046473015 0.92066669 4283100201
0.16269541 0.043903884 0.92338467 4283100201
0.038947348 0.052561495 0.92642862 4283100201
0.045111265 0.054781936 0.9223929 4283100201
0.052270196 0.057009436 0.92090005 4283100201
0.14895239 0.057828568 0.92000002 4283100201
0.15522517 0.055300955 0.92360008 4283100201
0.1615629 0.05032286 0.92699999 4283100201
0.047134474 0.063199431 0.92679995 4283100201
0.05457665 0.065151528 0.92436099 4283100201
0.063515715 0.066830724 0.92061114 4283100201
0.1279238 0.069219053 0.92000002 4283100201
0.13552 0.068009801 0.92057145 4283100201
0.14563142 0.065866627 0.92404008 4283100201
0.15207335 0.063241802 0.92655551 4283100201
0.017168812 -0.041697387 0.93649995 4283100201
0.025464952 -0.043279052 0.93500018 4283100201
0.034966383 -0.044222947 0.93420011 4283100201
0.04482146 -0.043772832 0.93570602 4283100201
0.054526508 -0.041600958 0.93600011 4283100201
0.065443419 -0.043185953 0.93491673 4283100201
0.073402852 -0.04150635 0.93611115 4283100201
0.088345706 -0.041941911 0.93699998 4283100201
0.096171439 -0.040071432 0.93500012 4283100201
0.10507619 -0.040071432 0.93500012 4283100201
0.11563285 -0.040772859 0.93575001 4283100201
0.12405942 -0.041175812 0.93580008 4283100201
0.13587095 -0.042320956 0.93550003 4283100201
0.14471664 -0.042840783 0.93536377 4283100201
0.15513955 -0.042573266 0.93576938 4283100201
0.16491428 -0.042432956 0.93600005 4283100201
0.17528342 -0.04140136 0.93628585 4283100201
0.18219906 -0.042320956 0.93550009 4283100201
0.014958758 -0.035728864 0.93238479 4283100201
0.024114858 -0.039190669 0.93100011 4283100201
0.035428572 -0.039857149 0.93000013 4283100201
0.045232002 -0.039908577 0.93120003 4283100201
0.055856198 -0.039900005 0.93100005 4283100201
0.066481195 -0.039003573 0.93075013 4283100201
0.074463628 -0.037942093 0.93080014 4283100201
0.085468426 -0.038812894 0.93107706 4283100201
0.094559833 -0.037486579 0.93109107 4283100201
0.1053291 -0.037540745 0.93111122 4283100201
0.1153281 -0.037261426 0.93150014 4283100201
0.12572327 -0.038616326 0.93057156 4283100201
0.13474841 -0.039007142 0.93083352 4283100201
0.14496191 -0.039069846 0.93000019 4283100201
0.15423684 -0.03912656 0.93133342 4283100201
0.165664 -0.038490668 0.93120015 4283100201
0.17513941 -0.037156716 0.93090922 4283100201
0.18198766 -0.038349524 0.93100011 4283100201
0.013016272 -0.02454976 0.93191677 4283100201
0.00892381 -0.01160095 0.93699998 4283100201
0.01555881 -0.015564684 0.93375009 4283100201
0.0086263493 -0.0086263493 0.93699998 4283100201
0.01457006 -0.00514116 0.93369585 4283100201
0.017488414 0.0041526984 0.93383342 4283100201
0.020836191 0.0084238108 0.93100005 4283100201
0.01874 0.013980634 0.93699998 4283100201
0.022413749 0.015317086 0.93218768 4283100201
0.024731088 0.024841234 0.93341196 4283100201
0.027443636 0.034409009 0.93509096 4283100201
0.031590477 0.038085718 0.93000013 4283100201
0.1691715 0.038971432 0.93000013 4283100201
0.17483491 0.036274895 0.93100011 4283100201
0.028853649 0.040752064 0.93699998 4283100201
0.033730347 0.044891976 0.93214309 4283100201
0.16754168 0.045660213 0.931889 4283100201
0.17468908 0.043509524 0.93486685 4283100201
0.036518715 0.055958714 0.93264723 4283100201
0.041628569 0.059342861 0.93000013 4283100201
0.15810004 0.058014289 0.93000013 4283100201
0.16406026 0.055870295 0.93257153 4283100201
0.037075777 0.064473629 0.93531263 4283100201
0.04364305 0.066182107 0.93150026 4283100201
0.15585704 0.066063367 0.93010551 4283100201
0.16384643 0.064433075 0.93280953 4283100201
0.025242142 -0.05229738 0.94674999 4283100201
0.035198443 -0.052352205 0.94327283 4283100201
0.045030814 -0.052623872 0.94564289 4283100201
0.054376788 -0.052119642 0.94762504 4283100201
0.065908574 -0.051462859 0.94800007 4283100201
0.13689856 -0.052099288 0.94725001 4283100201
0.14485842 -0.052229211 0.94733346 4283100201
0.15583315 -0.051462859 0.94800007 4283100201
0.16522287 -0.051462859 0.94800007 4283100201
0.17364956 -0.051462859 0.94800013 4283100201
0.017017525 -0.045677327 0.94040012 4283100201
0.024554225 -0.04785759 0.94100016 4283100201
0.034914289 -0.048939686 0.94000012 4283100201
0.044802379 -0.04838651 0.94083351 4283100201
0.055503331 -0.046719722 0.94150031 4283100201
0.064502992 -0.047978923 0.94333351 4283100201
0.075532518 -0.046223763 0.94313645 4283100201
0.084420957 -0.045941714 0.94423997 4283100201
0.095038682 -0.045684651 0.94296557 4283100201
0.10490949 -0.045893412 0.94472003 4283100201
0.11464416 -0.04532345 0.94361913 4283100201
0.12545572 -0.046116035 0.94316673 4283100201
0.13450757 -0.047063403 0.94247627 4283100201
0.14478733 -0.047441609 0.94206262 4283100201
0.15487787 -0.047752261 0.94388235 4283100201
0.16481933 -0.047238372 0.94205892 4283100201
0.17453229 -0.046900354 0.94200021 4283100201
0.1817333 -0.045657139 0.94000012 4283100201
0.0116381 -0.02059048 0.94000012 4283100201
0.0091660954 -0.014919998 0.94360006 4283100201
0.012327025 -0.014568452 0.94137508 4283100201
0.0090802712 -0.005243537 0.94000012 4283100201
0.012533335 -0.0053714286 0.94000012 4283100201
0.015219046 0.0053714286 0.94000012 4283100201
0.017541766 0.015748572 0.94114292 4283100201
0.018443927 0.024298931 0.94462502 4283100201
0.021201909 0.025981586 0.94066674 4283100201
0.018959999 0.03250286 0.94800007 4283100201
0.022950366 0.035513841 0.94188255 4283100201
0.025842747 0.045202751 0.94342321 4283100201
0.031797618 0.04792143 0.94050008 4283100201
0.1692 0.049238101 0.94000012 4283100201
0.17493112 0.047465082 0.94033343 4283100201
0.027477985 0.054594953 0.94517654 4283100201
0.032250796 0.055542856 0.94066685 4283100201
0.169488 0.054703999 0.94160002 4283100201
0.17233716 0.054105304 0.9445715 4283100201
0.046531428 -0.061129529 0.95800012 4283100201
0.052005719 -0.061129529 0.95800012 4283100201
0.16657351 -0.061705876 0.95750016 4283100201
0.17152759 -0.062041912 0.95800012 4283100201
0.018999999 -0.051571429 0.94999999 4283100201
0.027388763 -0.055683244 0.95220006 4283100201
0.034654476 -0.056432195 0.9526 4283100201
0.045098286 -0.057332959 0.95346671 4283100201
0.055026729 -0.056621026 0.95306253 4283100201
0.06496577 -0.055534743 0.95433354 4283100201
0.074456401 -0.055010755 0.95495671 4283100201
0.08465036 -0.053747505 0.95452946 4283100201
0.095118009 -0.05442775 0.95466685 4283100201
0.10478675 -0.05474833 0.95400029 4283100201
0.11510305 -0.053946726 0.9542942 4283100201
0.12508857 -0.053492829 0.95382357 4283100201
0.13466808 -0.055143077 0.95392317 4283100201
0.14561105 -0.055812575 0.95440006 4283100201
0.15519951 -0.056037869 0.95404768 4283100201
0.16470779 -0.056091085 0.95263654 4283100201
0.17241846 -0.055896275 0.95246154 4283100201
0.018999999 -0.04976191 0.94999999 4283100201
0.08866667 -0.04976191 0.94999999 4283100201
0.1094762 -0.04976191 0.94999999 4283100201
0.11490478 -0.04976191 0.94999999 4283100201
0.12304763 -0.04976191 0.94999999 4283100201
0.015697859 0.026169525 0.95575011 4283100201
0.017647713 0.034936097 0.95530003 4283100201
0.018247621 0.044706669 0.95800006 4283100201
0.021086801 0.045926806 0.95085716 4283100201
0.1769857 0.04991905 0.95300013 4283100201
0.03570291 -0.063971564 0.96365005 4283100201
0.044386372 -0.065162003 0.963579 4283100201
0.055192273 -0.064387612 0.96577781 4283100201
0.065361843 -0.063393675 0.96664286 4283100201
0.074849464 -0.063356616 0.96581244 4283100201
0.085020326 -0.063671768 0.96723521 4283100201
0.095589042 -0.062759206 0.9666667 4283100201
0.10508584 -0.063554399 0.96541166 4283100201
0.11494044 -0.06324593 0.96669239 4283100201
0.12448 -0.062901221 0.96514291 4283100201
0.13478987 -0.062759742 0.96518177 4283100201
0.14493847 -0.062743299 0.96553844 4283100201
0.15536807 -0.064116642 0.96531576 4283100201
0.16292684 -0.063983016 0.96200013 4283100201
0.028372381 -0.05949048 0.96100003 4283100201
0.034779046 -0.059490476 0.96100003 4283100201
0.058575239 -0.05949048 0.96100003 4283100201
0.062299997 -0.059552386 0.96200007 4283100201
0.077429146 -0.05912438 0.96100008 4283100201
0.085523911 -0.058676925 0.96100003 4283100201
0.094269529 -0.059032854 0.96100003 4283100201
0.1064727 -0.059490483 0.96100003 4283100201
0.1152368 -0.058658436 0.96100008 4283100201
0.12538761 -0.058575235 0.96100008 4283100201
0.13392261 -0.058835004 0.96150005 4283100201
0.14498787 -0.059094764 0.96200007 4283100201
0.1520867 -0.059552386 0.96200007 4283100201
0.012574282 0.027914604 0.96633333 4283100201
0.013788331 0.035285953 0.9655 4283100201
0.013157513 0.045307249 0.9642778 4283100201
0.037743334 -0.07247524 0.97250009 4283100201
0.044922955 -0.072577611 0.97450006 4283100201
0.054644573 -0.072675236 0.97580004 4283100201
0.063773245 -0.072511144 0.97610009 4283100201
0.075948417 -0.071920156 0.97650009 4283100201
0.084175028 -0.072400428 0.97600007 4283100201
0.098630488 -0.071646668 0.97700012 4283100201
0.10507926 -0.071602665 0.97640008 4283100201
0.11430459 -0.071558669 0.97580016 4283100201
0.1217676 -0.071573339 0.97600007 4283100201
0.14337793 -0.07367681 0.97700018 4283100201
0.037028573 -0.069428571 0.97200012 4283100201
0.047211427 -0.069428571 0.97200012 4283100201
0.055426665 -0.068920001 0.97228581 4283100201
0.064923808 -0.068343878 0.97276932 4283100201
0.075096674 -0.068609618 0.97350007 4283100201
0.084848396 -0.068503127 0.9731819 4283100201
0.094943836 -0.067980379 0.97420013 4283100201
0.10464878 -0.068531439 0.97240007 4283100201
0.11515429 -0.068167351 0.97285718 4283100201
0.12553905 -0.067938894 0.97307706 4283100201
0.13520218 -0.067661949 0.97318763 4283100201
0.14536247 -0.06789542 0.97300011 4283100201
0.15397811 -0.068770006 0.97250009 4283100201
0.01018286 0.028697141 0.97200012 4283100201
0.0083640004 0.034385335 0.97580016 4283100201
0.010450343 0.035054967 0.97228581 4283100201
0.079039998 -0.081862859 0.98799998 4283100201
0.085626669 -0.081862859 0.98800004 4283100201
0.093154281 -0.081862859 0.98799998 4283100201
0.105073 -0.081862859 0.98799998 4283100201
0.11536076 -0.081862859 0.98800004 4283100201
0.13267431 -0.081862859 0.98799998 4283100201
0.047220264 -0.077003807 0.98272723 4283100201
0.055270161 -0.07745479 0.98139989 4283100201
0.06509167 -0.07724715 0.98162484 4283100201
0.074747369 -0.07694944 0.98369551 4283100201
0.085496843 -0.077535897 0.98381239 4283100201
0.094615191 -0.075900376 0.98283988 4283100201
0.10515265 -0.076966375 0.98391318 4283100201
0.11520232 -0.07680729 0.98345006 4283100201
0.12517904 -0.076272093 0.98439133 4283100201
0.13476317 -0.075809702 0.98267847 4283100201
0.14559999 -0.074044444 0.98000002 4283100201
-0.0033568707 0.028325032 0.9867143 4283100201
0.0056264629 0.02693163 0.98492843 4283100201
0.01032429 0.024398094 0.98549998 4283100201
0.075383097 -0.083418332 0.99250007 4283100201
0.08437831 -0.08500877 0.99300003 4283100201
0.094655246 -0.083309531 0.99400008 4283100201
0.10574702 -0.084031545 0.99137509 4283100201
0.11399121 -0.084208779 0.99100006 4283100201
0.12556583 -0.083080664 0.99130011 4283100201
0.1315867 -0.084253334 0.99400002 4283100201
-0.0047384771 0.019916002 0.99580002 4283100201
0.0047476189 0.01994 0.99699992 4283100201
-0.0052527511 0.024371697 0.99283344 4283100201
0.0035264068 0.023478962 0.99345458 4283100201
-0.0044346321 0.016960345 1.0047272 4283100201
0.0050984127 0.015619472 1.0043336 4283100201
0.004831071 0.0079760719 1.015125 4283100201
0.01062286 0.0086914292 1.0140001 4283100201
0.0039946944 0.01116041 1.0127143 4283100201
0.01062286 0.011588575 1.0140001 4283100201
0.0033165715 0.0044811433 1.0236 4283100201
