# .PCD v0.7 - Point Cloud Data file format
VERSION 0.7
FIELDS x y z rgb
SIZE 4 4 4 4
TYPE F F F U
COUNT 1 1 1 1
WIDTH 313
HEIGHT 1
VIEWPOINT 0 0 0 1 0 0 0
POINTS 313
DATA ascii
0.13559507 0.14804502 0.68816674 4291672747
0.1331812 0.15442151 0.68539405 4291672747
0.13145684 0.16251653 0.68899995 4291672747
0.12725131 0.17736138 0.68833339 4291672747
0.1305819 0.1732343 0.68900001 4291672747
0.12465109 0.18505344 0.68766665 4291672747
0.1296286 0.14724475 0.69800001 4291672747
0.13373713 0.14428034 0.69400018 4291672747
-0.02232619 0.15588582 0.69769996 4291672747
0.12960538 0.15552561 0.69787502 4291672747
0.13086726 0.15505871 0.69450003 4291672747
0.12812489 0.1655072 0.69592011 4291672747
0.13100369 0.16281535 0.69277787 4291672747
0.12604679 0.17521399 0.69330257 4291672747
0.13120949 0.17699045 0.69000012 4291672747
0.11820143 0.18614474 0.69513631 4291672747
0.12248626 0.18355122 0.69222873 4291672747
0.1172144 0.19194585 0.69437504 4291672747
-0.020873331 0.12928 0.70700002 4291672747
-0.018704522 0.12756285 0.70775002 4291672747
-0.020873331 0.13264666 0.70700002 4291672747
-0.018406404 0.1326471 0.70636368 4291672747
0.12798929 0.13564502 0.70586962 4291672747
0.1324971 0.13701375 0.70295852 4291672747
0.12785019 0.14530441 0.70484626 4291672747
0.13056856 0.14258 0.70066661 4291672747
-0.020696189 0.15689045 0.70099998 4291672747
-0.018782916 0.15547267 0.70443749 4291672747
0.12735313 0.15499817 0.7033335 4291672747
-0.022118947 0.16421525 0.70377785 4291672747
-0.017174287 0.16363257 0.70336372 4291672747
0.12510164 0.16462839 0.70412511 4291672747
0.1193103 0.1783583 0.70459998 4291672747
0.1223385 0.17495386 0.70350009 4291672747
0.11640063 0.18505928 0.70377779 4291672747
0.10921489 0.1978675 0.70787507 4291672747
0.11295763 0.19425733 0.70405895 4291672747
0.10709306 0.2033046 0.70785725 4291672747
0.1111 0.20199999 0.70700002 4291672747
-0.012985024 0.12604783 0.7154482 4291672747
-0.0089019043 0.12531145 0.71899998 4291672747
0.11901561 0.12653811 0.71819997 4291672747
0.12451457 0.12745652 0.71296763 4291672747
0.1305048 0.1291524 0.70999998 4291672747
-0.013787128 0.13476433 0.71551728 4291672747
0.11915057 0.13314296 0.71855551 4291672747
0.12385591 0.1349415 0.71404755 4291672747
0.1305048 0.1305048 0.70999998 4291672747
-0.015569933 0.14532837 0.71764272 4291672747
0.1198333 0.1499629 0.71899998 4291672747
0.12352513 0.14500348 0.71419042 4291672747
-0.014846585 0.15468864 0.71430558 4291672747
0.11973806 0.1553147 0.71842855 4291672747
0.12293323 0.15508515 0.71317947 4291672747
-0.013176604 0.16511682 0.7152608 4291672747
0.11870638 0.16552018 0.7141766 4291672747
0.12179517 0.16446505 0.71065223 4291672747
-0.011199207 0.17428681 0.71516663 4291672747
-0.0086279996 0.17707944 0.71899998 4291672747
0.11723434 0.17569321 0.71560001 4291672747
0.12108571 0.17180683 0.71142858 4291672747
-0.010672379 0.18099113 0.7153334 4291672747
-0.0065421159 0.1860742 0.71888882 4291672747
0.1140411 0.18461098 0.71571046 4291672747
-0.002054286 0.19104861 0.71899998 4291672747
0.10622254 0.19625972 0.71476305 4291672747
0.11107966 0.19158536 0.71337503 4291672747
0.097535491 0.20719229 0.71619225 4291672747
0.10318674 0.2033181 0.71299988 4291672747
0.04724858 0.21364576 0.71899998 4291672747
0.085888118 0.21401888 0.71876466 4291672747
0.093396492 0.21129185 0.71584606 4291672747
-0.0038130269 0.11662849 0.72599995 4291672747
0.001712127 0.11559379 0.72853339 4291672747
0.1085038 0.11694702 0.72659999 4291672747
0.11248572 0.11834408 0.72350001 4291672747
-0.01028571 0.1289143 0.72000003 4291672747
-0.0052848309 0.12478289 0.72502381 4291672747
0.0013885715 0.1208057 0.72899997 4291672747
0.1091586 0.12373098 0.72850007 4291672747
0.11400365 0.1249823 0.72347057 4291672747
0.12 0.1227429 0.72000003 4291672747
-0.01028571 0.13485716 0.72000003 4291672747
-0.0068513281 0.13471018 0.72510713 4291672747
0.11418041 0.13518387 0.72463471 4291672747
0.12 0.13851431 0.72000003 4291672747
-0.011520299 0.1451534 0.72052646 4291672747
-0.0080311317 0.14548373 0.72568756 4291672747
0.1090029 0.14232861 0.72899997 4291672747
0.11492622 0.1447528 0.72526419 4291672747
0.12014284 0.14486124 0.7208572 4291672747
-0.010805194 0.15434581 0.72145462 4291672747
-0.0074873716 0.15512075 0.72643471 4291672747
0.1148669 0.15504871 0.72507155 4291672747
-0.010729335 0.16397467 0.72220004 4291672747
-0.0064958101 0.16536143 0.72614294 4291672747
0.11448652 0.16445909 0.7239607 4291672747
-0.0047598733 0.17492117 0.72457778 4291672747
0.10919327 0.17660396 0.72720009 4291672747
0.11301344 0.17417403 0.72287095 4291672747
-0.0032313161 0.1840823 0.72217649 4291672747
0.0012717461 0.18661875 0.72799999 4291672747
0.10687546 0.18563803 0.72541463 4291672747
0.11082978 0.18429923 0.7203638 4291672747
-0.00069071428 0.1933993 0.72525007 4291672747
0.0046402141 0.19505939 0.72667509 4291672747
0.010877147 0.19879712 0.72899991 4291672747
0.097796857 0.19775453 0.72588229 4291672747
0.10343955 0.19335298 0.72360522 4291672747
0.0076123811 0.20164724 0.72659999 4291672747
0.01413363 0.20473491 0.7280345 4291672747
0.024659963 0.20751022 0.72770828 4291672747
0.03531288 0.20817581 0.72704351 4291672747
0.044656653 0.20789193 0.72676009 4291672747
0.065240957 0.20842971 0.72708684 4291672747
0.075206943 0.20794672 0.7272414 4291672747
0.085826322 0.20754997 0.72676665 4291672747
0.09430822 0.20443402 0.72439581 4291672747
0.065486461 0.21231261 0.72190624 4291672747
0.083740287 0.21211463 0.72109985 4291672747
0.091200002 0.21051431 0.72000003 4291672747
0.0062686778 0.10890422 0.73144448 4291672747
0.015435717 0.10804819 0.73612511 4291672747
0.022381147 0.1048676 0.73900002 4291672747
0.076715238 0.10345999 0.73900002 4291672747
0.087413147 0.10852742 0.73900002 4291672747
0.094308339 0.10855752 0.73541665 4291672747
0.0062784594 0.11484852 0.73214728 4291672747
0.014350767 0.11425156 0.7371282 4291672747
0.021466194 0.1112019 0.73900002 4291672747
0.089383811 0.11331334 0.73900002 4291672747
0.095257968 0.11464696 0.73562247 4291672747
0.10366901 0.11579372 0.73175782 4291672747
-0.00069619052 0.12670667 0.73100001 4291672747
0.0048758266 0.12527613 0.73542851 4291672747
0.011570129 0.12240736 0.73827273 4291672747
0.095820971 0.12253215 0.73800004 4291672747
0.10465145 0.1251979 0.73542553 4291672747
-0.0021557824 0.13535045 0.7316668 4291672747
0.0035975631 0.13457395 0.73708832 4291672747
0.1055345 0.13469303 0.73617297 4291672747
-0.0033127975 0.14501722 0.73337507 4291672747
0.0022434923 0.14469901 0.73804766 4291672747
0.10617928 0.14536048 0.73626077 4291672747
0.11074477 0.14835684 0.73133332 4291672747
-0.0027206568 0.15507431 0.73427588 4291672747
0.0023116102 0.15588939 0.73842865 4291672747
0.10590065 0.15483785 0.7348333 4291672747
0.11080785 0.15331835 0.73175007 4291672747
-0.0017969424 0.16452265 0.73215801 4291672747
0.0031840953 0.16575345 0.73643333 4291672747
0.1058337 0.16524655 0.73521996 4291672747
0.1106943 0.1677819 0.73100001 4291672747
-0.00069619052 0.17335144 0.73100001 4291672747
0.0043534171 0.17538077 0.73602229 4291672747
0.01055714 0.1794714 0.73900002 4291672747
0.098181427 0.1791195 0.73900002 4291672747
0.10472739 0.17489736 0.73451072 4291672747
0.1106943 0.17126289 0.73100001 4291672747
0.0057674069 0.18446514 0.73386663 4291672747
0.011196922 0.18633263 0.73830771 4291672747
0.097384878 0.18556181 0.73699999 4291672747
0.10243803 0.18353283 0.73275882 4291672747
0.0075420784 0.19181637 0.73190916 4291672747
0.013650301 0.19568126 0.73576319 4291672747
0.02111429 0.1991781 0.73900002 4291672747
0.03612889 0.1989435 0.73900002 4291672747
0.04448076 0.19875582 0.73899996 4291672747
0.055131745 0.1991781 0.73900002 4291672747
0.068973333 0.1991781 0.73900002 4291672747
0.075307615 0.1991781 0.73899996 4291672747
0.087215804 0.19767497 0.73700011 4291672747
0.094713748 0.19445536 0.73472708 4291672747
0.1009476 0.19006 0.73100001 4291672747
0.016831644 0.20186988 0.73288894 4291672747
0.024972234 0.20324123 0.73458689 4291672747
0.035050746 0.20338909 0.73463267 4291672747
0.045388058 0.20294982 0.7341488 4291672747
0.055235069 0.20414479 0.73412484 4291672747
0.064867757 0.20384307 0.73445666 4291672747
0.074957691 0.20319381 0.73493195 4291672747
0.084633812 0.20283946 0.73363632 4291672747
0.091665089 0.2016632 0.73100001 4291672747
0.017619049 0.1050095 0.74000001 4291672747
0.025093969 0.1068551 0.74139994 4291672747
0.034931015 0.10571244 0.74321741 4291672747
0.044505969 0.10608531 0.74491137 4291672747
0.054686025 0.10589489 0.74483746 4291672747
0.064404383 0.10585642 0.74395019 4291672747
0.074935183 0.1074592 0.74231243 4291672747
0.08426065 0.10719158 0.74021041 4291672747
0.018241497 0.11780966 0.74071437 4291672747
0.025055194 0.11567044 0.74306673 4291672747
0.034469381 0.11486681 0.74540007 4291672747
0.044797145 0.11261762 0.74662501 4291672747
0.054868016 0.11284247 0.74731821 4291672747
0.06546437 0.11403233 0.74715596 4291672747
0.074949838 0.11467326 0.74468189 4291672747
0.084749833 0.11551355 0.74253213 4291672747
0.090914287 0.1191048 0.74000001 4291672747
0.0091619045 0.1289714 0.74000001 4291672747
0.015701339 0.12571143 0.7427839 4291672747
0.024740528 0.12493626 0.74640006 4291672747
0.032161906 0.12259396 0.74766666 4291672747
0.077023946 0.12209945 0.74785721 4291672747
0.085200481 0.12505089 0.74545091 4291672747
0.094132237 0.12693641 0.74151844 4291672747
0.0081770066 0.13615796 0.74185711 4291672747
0.014724308 0.13507147 0.74508703 4291672747
0.021860365 0.13285948 0.74784625 4291672747
0.085853845 0.13412204 0.74734354 4291672747
0.095026791 0.13507763 0.74342591 4291672747
0.1007809 0.13672383 0.74000001 4291672747
0.0070943567 0.14527932 0.74196285 4291672747
0.014104739 0.1449389 0.74582505 4291672747
0.088097781 0.14128888 0.74800009 4291672747
0.095466614 0.14488773 0.74539214 4291672747
0.10145903 0.14401715 0.74066663 4291672747
0.0067403172 0.1544909 0.74206668 4291672747
0.013600809 0.15491419 0.74666673 4291672747
0.089047618 0.1581486 0.74800003 4291672747
0.09506382 0.15504816 0.74515522 4291672747
0.10130601 0.1557636 0.74155557 4291672747
0.0073203463 0.16395272 0.74145448 4291672747
0.01307645 0.16477913 0.74627262 4291672747
0.088854641 0.16399892 0.74787503 4291672747
0.095035307 0.1650324 0.74405271 4291672747
0.10111912 0.16481736 0.74133331 4291672747
0.0085702045 0.17249511 0.74100006 4291672747
0.014926061 0.17482482 0.74448079 4291672747
0.02065905 0.17738287 0.74799997 4291672747
0.088841639 0.17575411 0.74628574 4291672747
0.094732814 0.17462549 0.74235201 4291672747
0.1007809 0.17337145 0.74000001 4291672747
0.015996121 0.18456015 0.74292505 4291672747
0.022896193 0.18710345 0.74699998 4291672747
0.079074293 0.18735617 0.74799997 4291672747
0.085449427 0.18549712 0.74550945 4291672747
0.092508286 0.1845452 0.74054152 4291672747
0.017594181 0.19336869 0.74222219 4291672747
0.024841636 0.19536012 0.74360389 4291672747
0.034304187 0.19636428 0.74465787 4291672747
0.045256793 0.19557123 0.7445122 4291672747
0.05465167 0.19599067 0.74430007 4291672747
0.064813286 0.19662392 0.74433327 4291672747
0.075514264 0.19577248 0.74462783 4291672747
0.084603645 0.19377093 0.74256825 4291672747
0.090914287 0.19099049 0.74000001 4291672747
0.037857145 0.1192857 0.75000018 4291672747
0.045013409 0.11734442 0.75023085 4291672747
0.055194799 0.1177273 0.75000006 4291672747
0.062582426 0.11763739 0.75000006 4291672747
0.070714287 0.1192857 0.75000012 4291672747
0.027857143 0.12928569 0.75000012 4291672747
0.035992056 0.12587832 0.75108582 4291672747
0.045032892 0.124975 0.75213367 4291672747
0.055182356 0.12469874 0.75247639 4291672747
0.06531062 0.12512912 0.75185126 4291672747
0.074135028 0.12607919 0.75034302 4291672747
0.01928572 0.1392857 0.75000012 4291672747
0.026138494 0.13577268 0.75075012 4291672747
0.035183769 0.13497151 0.75381845 4291672747
0.045431696 0.13485724 0.75563073 4291672747
0.055417314 0.13458619 0.75569415 4291672747
0.065238379 0.13489339 0.75465941 4291672747
0.075386897 0.13498037 0.75200015 4291672747
0.082047626 0.13642858 0.75000006 4291672747
0.019107148 0.14553572 0.75000006 4291672747
0.024931412 0.14527537 0.75236177 4291672747
0.035360262 0.14476691 0.7557711 4291672747
0.045404926 0.14486092 0.75673473 4291672747
0.05549112 0.1448558 0.7566942 4291672747
0.065571733 0.14483953 0.75661212 4291672747
0.075397894 0.14491479 0.7549364 4291672747
0.084692076 0.14574203 0.75141883 4291672747
0.090714298 0.14785717 0.75000018 4291672747
0.01846939 0.15489796 0.75000006 4291672747
0.025089139 0.15509613 0.75342584 4291672747
0.0353138 0.15493935 0.75667351 4291672747
0.045460094 0.15514402 0.7576732 4291672747
0.05558667 0.15520953 0.75799972 4291672747
0.065576226 0.15515001 0.75770813 4291672747
0.075409167 0.15485317 0.75528002 4291672747
0.085009232 0.15520337 0.75172353 4291672747
0.090714291 0.15071429 0.75000012 4291672747
0.018007517 0.16537595 0.75000006 4291672747
0.025133671 0.16512516 0.75384003 4291672747
0.035326928 0.16508409 0.7569387 4291672747
0.045474946 0.16529807 0.75791806 4291672747
0.05558667 0.16531621 0.75799972 4291672747
0.065584175 0.16504849 0.75677562 4291672747
0.075458184 0.16486163 0.75550014 4291672747
0.084395155 0.16549726 0.75178075 4291672747
0.025419349 0.17476375 0.75168771 4291672747
0.035297859 0.17502999 0.75630629 4291672747
0.045454264 0.1753267 0.75759178 4291672747
0.055530496 0.17524059 0.7572245 4291672747
0.065563641 0.1750825 0.75653058 4291672747
0.075589247 0.17485519 0.75506037 4291672747
0.08431796 0.17540637 0.75190026 4291672747
0.026286783 0.18398866 0.75081825 4291672747
0.035182703 0.18522418 0.75383931 4291672747
0.0452598 0.18546695 0.75520027 4291672747
0.055278998 0.18511832 0.75416684 4291672747
0.065475389 0.1853141 0.75458223 4291672747
0.074946955 0.18486613 0.75282705 4291672747
0.082678579 0.18160714 0.75000006 4291672747
0.028809531 0.1911905 0.75000018 4291672747
0.03542627 0.19226077 0.75105262 4291672747
0.044288576 0.19169647 0.75086665 4291672747
0.055755388 0.19188385 0.75105262 4291672747
0.06472376 0.19217007 0.75094998 4291672747
0.07387583 0.19223826 0.75037503 4291672747
