# .PCD v0.7 - Point Cloud Data file format
VERSION 0.7
FIELDS x y z rgb
SIZE 4 4 4 4
TYPE F F F U
COUNT 1 1 1 1
WIDTH 624
HEIGHT 1
VIEWPOINT 0 0 0 1 0 0 0
POINTS 624
DATA ascii
-0.15471604 -0.0037985039 0.73831427 4285747711
-0.14800958 -0.0051158443 0.73845458 4285747711
-0.16307887 0.0063961456 0.73852384 4285747711
-0.15521514 0.0049159369 0.73744863 4285747711
-0.1494422 0.0011730161 0.73900002 4285747711
-0.16382709 0.014934361 0.73724306 4285747711
-0.15526241 0.014585877 0.73682964 4285747711
-0.1712603 0.024867937 0.73900002 4285747711
-0.1649037 0.024659738 0.73718721 4285747711
-0.15584071 0.024527825 0.7368536 4285747711
-0.16415855 0.0340566 0.73748702 4285747711
-0.15681531 0.034103539 0.73734367 4285747711
-0.1646616 0.041934192 0.73836851 4285747711
-0.15825 0.0404419 0.73850006 4285747711
-0.16312979 -0.022156134 0.74758828 4285747711
-0.15457831 -0.022951651 0.74769223 4285747711
-0.14445423 -0.024592964 0.74591315 4285747711
-0.13917066 -0.022288097 0.74683332 4285747711
-0.18130097 -0.011041904 0.74800003 4285747711
-0.17355663 -0.013841071 0.74762481 4285747711
-0.16447601 -0.01489392 0.74438643 4285747711
-0.15490794 -0.014779326 0.74312502 4285747711
-0.14487234 -0.0148421 0.74204099 4285747711
-0.13856211 -0.015992044 0.74392855 4285747711
-0.19203754 -0.0013229932 0.74800009 4285747711
-0.18462351 -0.0046853884 0.74771029 4285747711
-0.17501563 -0.0048771235 0.74435419 4285747711
-0.16519558 -0.0050447416 0.74176759 4285747711
-0.15682016 -0.0077559189 0.74028558 4285747711
-0.14584242 -0.00560277 0.74436373 4285747711
-0.19352771 0.0052611982 0.74787086 4285747711
-0.18500991 0.0051514292 0.74539119 4285747711
-0.17484888 0.004799475 0.7425108 4285747711
-0.16697732 0.0038960669 0.74113035 4285747711
-0.15016393 0.0067241667 0.74287498 4285747711
-0.14866476 0.0027363268 0.74485713 4285747711
-0.19428048 0.014652497 0.74772716 4285747711
-0.18513092 0.014895181 0.74475521 4285747711
-0.17522797 0.014836986 0.74188107 4285747711
-0.16926031 0.014212699 0.73999995 4285747711
-0.15079437 0.016158877 0.74336362 4285747711
-0.14957251 0.014439844 0.74550009 4285747711
-0.19313525 0.025368316 0.74788463 4285747711
-0.18496749 0.024677915 0.74482989 4285747711
-0.17564085 0.024671191 0.74130559 4285747711
-0.16984759 0.020438099 0.74000001 4285747711
-0.15148062 0.024449693 0.74347049 4285747711
-0.19163047 0.033565715 0.74800009 4285747711
-0.18469469 0.034807354 0.74585694 4285747711
-0.17522846 0.034621477 0.74188095 4285747711
-0.16914284 0.03594286 0.73999995 4285747711
-0.15390259 0.034233257 0.74523073 4285747711
-0.18384674 0.043803986 0.7469641 4285747711
-0.17502141 0.044689991 0.7432 4285747711
-0.16497844 0.045995597 0.74062055 4285747711
-0.15755691 0.044609562 0.7434231 4285747711
-0.18023241 0.051291429 0.74800003 4285747711
-0.17388222 0.053939853 0.74677408 4285747711
-0.16465421 0.054324124 0.7428087 4285747711
-0.15823445 0.054788731 0.74394441 4285747711
-0.17085761 0.060511906 0.7475 4285747711
-0.16377638 0.063053459 0.74642307 4285747711
-0.15793906 0.061512616 0.74450004 4285747711
-0.14476278 -0.041614372 0.75690901 4285747711
-0.1380619 -0.041455239 0.75700003 4285747711
-0.18276261 -0.031934049 0.75774997 4285747711
-0.17439596 -0.032561135 0.75652385 4285747711
-0.16454755 -0.033848159 0.75612521 4285747711
-0.15483235 -0.034842782 0.75478053 4285747711
-0.14496674 -0.035091981 0.75245851 4285747711
-0.1366681 -0.035130553 0.75441688 4285747711
-0.20332468 -0.022847623 0.75658822 4285747711
-0.19512096 -0.023762614 0.7560004 4285747711
-0.18487294 -0.025145801 0.75517797 4285747711
-0.17496285 -0.025104018 0.7529133 4285747711
-0.16588788 -0.026402922 0.75186676 4285747711
-0.15549986 -0.02781851 0.75076193 4285747711
-0.14785717 -0.02928572 0.75000018 4285747711
-0.13731618 -0.026275098 0.75174993 4285747711
-0.21068101 -0.01150476 0.75500011 4285747711
-0.2045766 -0.014909944 0.75473958 4285747711
-0.19476019 -0.015219938 0.7527048 4285747711
-0.18526675 -0.015215437 0.75067461 4285747711
-0.17705359 -0.017500002 0.75000006 4285747711
-0.14165241 -0.01078571 0.75500011 4285747711
-0.21139005 -0.0041482789 0.75476933 4285747711
-0.20493282 -0.0051849126 0.75320476 4285747711
-0.19539872 -0.0054701911 0.75070018 4285747711
-0.1887143 -0.0081428578 0.75000012 4285747711
-0.14399496 -0.0044866335 0.75482774 4285747711
-0.21307619 0.0058030603 0.75492871 4285747711
-0.20466535 0.0050068488 0.7513811 4285747711
-0.19826531 0.0037755107 0.75000006 4285747711
-0.14579785 0.0050270152 0.75417084 4285747711
-0.21412402 0.015089913 0.75445265 4285747711
-0.20451567 0.01501739 0.75083351 4285747711
-0.19880955 0.016111113 0.75000006 4285747711
-0.14846979 0.014017545 0.75389481 4285747711
-0.220181 0.02574794 0.75799996 4285747711
-0.214707 0.025137588 0.75609314 4285747711
-0.20507357 0.025098525 0.75288117 4285747711
-0.19812478 0.024766248 0.75011116 4285747711
-0.15084301 0.026975395 0.75183344 4285747711
-0.14912382 0.024777142 0.75307691 4285747711
-0.220181 0.033448253 0.75800008 4285747711
-0.21391763 0.034871083 0.75657582 4285747711
-0.20513982 0.035395265 0.75435603 4285747711
-0.19653176 0.035546109 0.75113803 4285747711
-0.1518382 0.035816502 0.75276011 4285747711
-0.1494343 0.033929519 0.75800002 4285747711
-0.21177116 0.042973332 0.75742859 4285747711
-0.20459929 0.044938959 0.75562811 4285747711
-0.19482316 0.045255639 0.75251186 4285747711
-0.18749034 0.047077555 0.75057143 4285747711
-0.15364629 0.044790223 0.75366682 4285747711
-0.20257303 0.05226722 0.75771427 4285747711
-0.19482297 0.055168793 0.75620013 4285747711
-0.18521725 0.055407815 0.75305021 4285747711
-0.17771077 0.05758711 0.75076926 4285747711
-0.15655921 0.053739276 0.75470591 4285747711
-0.19283469 0.061585903 0.75719994 4285747711
-0.1838229 0.063818514 0.75603712 4285747711
-0.17519514 0.065502219 0.75327528 4285747711
-0.1660167 0.067407176 0.75028574 4285747711
-0.15925641 0.067434765 0.75325 4285747711
-0.18167937 0.070506029 0.75800008 4285747711
-0.17415512 0.074014626 0.75607151 4285747711
-0.16484138 0.074762583 0.75421977 4285747711
-0.1592932 0.072708428 0.75585711 4285747711
-0.16498302 0.080797791 0.75800002 4285747711
-0.14457907 -0.050468575 0.76799995 4285747711
-0.13504477 -0.050618567 0.76750004 4285747711
-0.1294629 -0.050468571 0.76800001 4285747711
-0.19414416 -0.042202592 0.7663635 4285747711
-0.18518324 -0.043156087 0.76663154 4285747711
-0.1751222 -0.043710399 0.76533341 4285747711
-0.16499534 -0.044617876 0.76583326 4285747711
-0.15503122 -0.044579916 0.76490623 4285747711
-0.14515235 -0.046252564 0.76324129 4285747711
-0.13460639 -0.045155562 0.76381391 4285747711
-0.12794627 -0.045776602 0.76642853 4285747711
-0.2025042 -0.03341905 0.76074994 4285747711
-0.19529366 -0.035081752 0.76229566 4285747711
-0.1852857 -0.036334939 0.76136845 4285747711
-0.17498229 -0.037714217 0.76096296 4285747711
-0.16572262 -0.03898691 0.76041675 4285747711
-0.15793526 -0.039520003 0.76000011 4285747711
-0.13367948 -0.035543099 0.76425004 4285747711
-0.20463613 -0.028173894 0.76082355 4285747711
-0.19515809 -0.029025933 0.76046157 4285747711
-0.1889143 -0.02967619 0.76000011 4285747711
-0.13592847 -0.024777714 0.76530004 4285747711
-0.14064114 -0.01333984 0.76383334 4285747711
-0.13773827 -0.015466669 0.76724988 4285747711
-0.14076948 -0.0049538892 0.76125008 4285747711
-0.13882861 -0.0060407487 0.76550001 4285747711
-0.14209341 0.0050953114 0.76392305 4285747711
-0.14560752 0.015521872 0.76355177 4285747711
-0.14718156 0.025632804 0.76372004 4285747711
-0.22138228 0.037121091 0.76000017 4285747711
-0.21867092 0.037075136 0.76000017 4285747711
-0.15061715 0.037839048 0.764 4285747711
-0.14850518 0.033932593 0.76522225 4285747711
-0.22202693 0.044091173 0.76118183 4285747711
-0.21609078 0.045500621 0.76059377 4285747711
-0.20845714 0.049942859 0.76000011 4285747711
-0.15146768 0.045915794 0.76341677 4285747711
-0.14991499 0.044608567 0.76785719 4285747711
-0.221608 0.054693546 0.7656154 4285747711
-0.21508232 0.0547808 0.76415569 4285747711
-0.20566924 0.055701595 0.76096427 4285747711
-0.15371989 0.054610122 0.76287502 4285747711
-0.22162285 0.060708571 0.76800001 4285747711
-0.21396595 0.06212914 0.76746672 4285747711
-0.20453507 0.064656802 0.76480484 4285747711
-0.19536771 0.065716572 0.76240629 4285747711
-0.18753429 0.06707558 0.76027292 4285747711
-0.15661547 0.064540647 0.7635625 4285747711
-0.20187426 0.070948571 0.76800001 4285747711
-0.19431379 0.07366769 0.76643997 4285747711
-0.18541253 0.075039648 0.76300007 4285747711
-0.17742817 0.077952594 0.76177782 4285747711
-0.16038285 0.078378096 0.76199996 4285747711
-0.15843606 0.07511311 0.76338458 4285747711
-0.1820921 0.082009383 0.76785713 4285747711
-0.1741734 0.084606268 0.76423532 4285747711
-0.16468392 0.086319208 0.762353 4285747711
-0.15928634 0.085274361 0.76521438 4285747711
-0.1704229 0.09142857 0.76800001 4285747711
-0.1644118 0.092070244 0.76725006 4285747711
-0.15934715 0.091369048 0.76750004 4285747711
-0.1261238 -0.060836192 0.77899998 4285747711
-0.1926149 -0.053930942 0.77396005 4285747711
-0.1852344 -0.05363391 0.77633345 4285747711
-0.17522928 -0.05368185 0.77633345 4285747711
-0.16519509 -0.053849582 0.77509081 4285747711
-0.15498523 -0.053777672 0.77409697 4285747711
-0.14512977 -0.053920984 0.77277416 4285747711
-0.13446619 -0.054813378 0.773 4285747711
-0.12624413 -0.054663368 0.77690625 4285747711
-0.19388074 -0.047737498 0.77112514 4285747711
-0.18512434 -0.047752045 0.77135003 4285747711
-0.17513745 -0.048402496 0.7709232 4285747711
-0.16475555 -0.049133342 0.76999998 4285747711
-0.15619999 -0.049133342 0.76999998 4285747711
-0.1307019 -0.040385708 0.77100003 4285747711
-0.12723249 -0.044753756 0.77322227 4285747711
-0.13172407 -0.034147397 0.77228564 4285747711
-0.12896045 -0.035587277 0.77700001 4285747711
-0.13244066 -0.024919873 0.77377278 4285747711
-0.12900667 -0.028366668 0.77700001 4285747711
-0.13391575 -0.015653459 0.77317393 4285747711
-0.137159 -0.0050069173 0.77452642 4285747711
-0.14111899 0.006248333 0.77175015 4285747711
-0.13904224 0.0048876829 0.77740008 4285747711
-0.14206241 0.015439347 0.77205265 4285747711
-0.139788 0.014054286 0.7766 4285747711
-0.14428997 0.0248577 0.77363163 4285747711
-0.14551108 0.035024088 0.77429175 4285747711
-0.14795192 0.044429913 0.77395463 4285747711
-0.15130198 0.056298796 0.77300006 4285747711
-0.14910708 0.055692106 0.77671427 4285747711
-0.22202405 0.065519124 0.77292317 4285747711
-0.21538168 0.066897511 0.77123082 4285747711
-0.20900001 0.068933338 0.76999998 4285747711
-0.15284608 0.064857431 0.77500004 4285747711
-0.14899527 0.063006669 0.77833337 4285747711
-0.22140141 0.073309518 0.77749997 4285747711
-0.2150757 0.074280053 0.7764138 4285747711
-0.20505641 0.075210601 0.77265722 4285747711
-0.19656613 0.077860117 0.77044439 4285747711
-0.1899333 0.079933338 0.76999998 4285747711
-0.15568337 0.075072102 0.77499992 4285747711
-0.20455834 0.080897376 0.77749997 4285747711
-0.19431187 0.084061258 0.77576929 4285747711
-0.18555173 0.085769683 0.77196556 4285747711
-0.17820001 0.088244446 0.76999998 4285747711
-0.15738626 0.084010929 0.77414286 4285747711
-0.18462501 0.09167178 0.77681822 4285747711
-0.17464742 0.094716996 0.77420688 4285747711
-0.16486619 0.097135633 0.773655 4285747711
-0.15860502 0.094829664 0.7761429 4285747711
-0.17168 0.10138 0.77700001 4285747711
-0.16549283 0.10316463 0.77827281 4285747711
-0.15950949 0.10238285 0.77899998 4285747711
-0.18496923 -0.062115978 0.78413057 4285747711
-0.17625095 -0.062549807 0.78650004 4285747711
-0.16452214 -0.061592758 0.78546673 4285747711
-0.15504733 -0.062171966 0.78647625 4285747711
-0.145964 -0.061358292 0.78759998 4285747711
-0.13436233 -0.061294116 0.78572726 4285747711
-0.12687284 -0.061008576 0.78599995 4285747711
-0.18471316 -0.05830019 0.78079998 4285747711
-0.17537561 -0.058360375 0.78160006 4285747711
-0.16416836 -0.058631666 0.78175008 4285747711
-0.15554151 -0.058580954 0.78142864 4285747711
-0.14559184 -0.058986664 0.7840001 4285747711
-0.13738951 -0.058986671 0.78399998 4285747711
-0.12232641 -0.054447427 0.78606677 4285747711
-0.12610507 -0.044297852 0.78694743 4285747711
-0.12743215 -0.035922799 0.78682363 4285747711
-0.13058095 -0.022591112 0.78200006 4285747711
-0.12871364 -0.024736805 0.78707135 4285747711
-0.13161132 -0.014491566 0.7832858 4285747711
-0.12952067 -0.016418098 0.78871429 4285747711
-0.13358091 -0.0051766993 0.78419995 4285747711
-0.1356308 0.0049384763 0.78540003 4285747711
-0.14076 0.018619049 0.78200012 4285747711
-0.13853715 0.014588096 0.78524995 4285747711
-0.14165322 0.024609445 0.7849167 4285747711
-0.1390143 0.02104 0.78899997 4285747711
-0.14208318 0.03528785 0.78440005 4285747711
-0.1390143 0.035317142 0.78899997 4285747711
-0.14570244 0.045148753 0.78356254 4285747711
-0.14734593 0.054609403 0.78637499 4285747711
-0.1513638 0.068259045 0.7851429 4285747711
-0.14884414 0.062540956 0.78800005 4285747711
-0.2211943 0.079689533 0.78200012 4285747711
-0.21668762 0.078893334 0.78066665 4285747711
-0.15174314 0.075050429 0.78335011 4285747711
-0.2211943 0.081179053 0.78200012 4285747711
-0.21567102 0.084313639 0.7851249 4285747711
-0.20530017 0.086046644 0.78407407 4285747711
-0.19686119 0.087814823 0.78066671 4285747711
-0.15473314 0.085170642 0.7841053 4285747711
-0.20316873 0.09266527 0.78807694 4285747711
-0.19545761 0.094178811 0.78610706 4285747711
-0.18481414 0.09667851 0.78431588 4285747711
-0.17784761 0.098472394 0.78133339 4285747711
-0.15645544 0.095399626 0.78604341 4285747711
-0.17579949 0.10072143 0.78049999 4285747711
-0.16458948 0.10786748 0.78364724 4285747711
-0.15677655 0.10425626 0.7854445 4285747711
-0.165556 0.11012401 0.78659999 4285747711
-0.15855139 0.11046 0.78899997 4285747711
-0.17809333 -0.071186669 0.79800004 4285747711
-0.16514784 -0.070613578 0.79725003 4285747711
-0.15554738 -0.070566118 0.79671437 4285747711
-0.14730167 -0.070613571 0.79725009 4285747711
-0.18080001 -0.067046657 0.79100001 4285747711
-0.1740119 -0.066037625 0.79594457 4285747711
-0.16529417 -0.066830538 0.79594737 4285747711
-0.15506963 -0.067325272 0.79426324 4285747711
-0.14516452 -0.065810964 0.79480666 4285747711
-0.13832223 -0.063746989 0.79366666 4285747711
-0.12327334 -0.063608676 0.79300004 4285747711
-0.11682081 -0.063302301 0.79678947 4285747711
-0.12122834 -0.055247545 0.79475003 4285747711
-0.11861459 -0.058167625 0.79666668 4285747711
-0.12241843 -0.045541987 0.79413056 4285747711
-0.12497072 -0.034730088 0.79440916 4285747711
-0.12633836 -0.025638195 0.79536849 4285747711
-0.1303267 -0.0113 0.79100001 4285747711
-0.12708069 -0.015022942 0.79600006 4285747711
-0.13084455 -0.0044398941 0.7921111 4285747711
-0.12917753 -0.0046821428 0.79708332 4285747711
-0.13265572 0.0056251022 0.79464287 4285747711
-0.12996 0.0015199999 0.79799998 4285747711
-0.13597311 0.01546138 0.79585004 4285747711
-0.13843454 0.024624538 0.79482359 4285747711
-0.14045615 0.037063811 0.7943334 4285747711
-0.139329 0.033886801 0.79571432 4285747711
-0.14270595 0.045305118 0.79533345 4285747711
-0.14342758 0.055582825 0.79404169 4285747711
-0.14595062 0.064906657 0.79406905 4285747711
-0.15085857 0.07486476 0.79400003 4285747711
-0.14828816 0.072581358 0.79500002 4285747711
-0.21520223 0.089144453 0.79099995 4285747711
-0.1526843 0.085978843 0.7959286 4285747711
-0.2147017 0.094525591 0.79566681 4285747711
-0.2053176 0.095612675 0.79146159 4285747711
-0.19436 0.098686673 0.79099995 4285747711
-0.15357567 0.094294898 0.79478961 4285747711
-0.19324222 0.10336857 0.79510003 4285747711
-0.18553248 0.10323831 0.79452389 4285747711
-0.15626144 0.10543285 0.79649997 4285747711
-0.15781842 0.11243895 0.79711109 4285747711
-0.17416684 -0.072391905 0.80150008 4285747711
-0.16787302 -0.071365081 0.80000001 4285747711
-0.17371431 -0.069333337 0.80000001 4285747711
-0.16634919 -0.069333337 0.80000001 4285747711
-0.1143752 -0.061409526 0.80600011 4285747711
-0.11636787 -0.054337267 0.80509686 4285747711
-0.1206254 -0.041059684 0.80333346 4285747711
-0.11932554 -0.047334284 0.80420005 4285747711
-0.12165444 -0.034996752 0.80399996 4285747711
-0.1240698 -0.024723476 0.80388236 4285747711
-0.12493068 -0.015447237 0.8028 4285747711
-0.12723476 -0.005826667 0.80300009 4285747711
-0.13201173 0.0068949214 0.80433327 4285747711
-0.1290219 0.001915238 0.80400002 4285747711
-0.13235492 0.014789417 0.80333334 4285747711
-0.13614468 0.02503469 0.80431575 4285747711
-0.13845232 0.034872379 0.80400008 4285747711
-0.14071335 0.049709529 0.80300009 4285747711
-0.13912639 0.044336509 0.80266672 4285747711
-0.1416713 0.05450068 0.80285722 4285747711
-0.13928381 0.050019048 0.80800003 4285747711
-0.14427 0.067170002 0.80149996 4285747711
-0.1512343 0.078672379 0.80199999 4285747711
-0.14684191 0.076545313 0.80485713 4285747711
-0.15075165 0.084074639 0.80054551 4285747711
-0.14878027 0.084531017 0.80585706 4285747711
-0.15129478 0.095446892 0.80076927 4285747711
-0.14897873 0.092407942 0.80633348 4285747711
-0.15322608 0.10489428 0.80445457 4285747711
-0.1493938 0.10446238 0.80650008 4285747711
-0.1544937 0.11366113 0.80490911 4285747711
-0.14798972 0.11848344 0.80680007 4285747711
-0.11208666 -0.061841581 0.81166667 4285747711
-0.1081443 -0.061630476 0.81400007 4285747711
-0.1122102 -0.056158096 0.81257153 4285747711
-0.10901556 -0.059295554 0.81566668 4285747711
-0.11637522 -0.04500962 0.81389302 4285747711
-0.10998 -0.044459999 0.81900012 4285747711
-0.12032063 -0.033310477 0.81333345 4285747711
-0.11837128 -0.035552442 0.81676489 4285747711
-0.12174208 -0.024601795 0.81482363 4285747711
-0.11868215 -0.026308808 0.8185001 4285747711
-0.12376007 -0.015043032 0.81590933 4285747711
-0.1262839 -0.0052924766 0.81750011 4285747711
-0.1311817 0.0069531426 0.81120002 4285747711
-0.12796728 0.0048871711 0.81494135 4285747711
-0.13135459 0.015464444 0.81611121 4285747711
-0.12900835 0.012200953 0.81766677 4285747711
-0.13374564 0.02557626 0.81378585 4285747711
-0.13582042 0.034879394 0.81384009 4285747711
-0.13650379 0.04482998 0.81460875 4285747711
-0.14144324 0.057241298 0.81318182 4285747711
-0.1382309 0.053144217 0.81542873 4285747711
-0.14274204 0.065681227 0.8158825 4285747711
-0.13962001 0.060839999 0.81900012 4285747711
-0.14504093 0.074530102 0.8118 4285747711
-0.14635368 0.085134134 0.81536859 4285747711
-0.1509857 0.096787632 0.81299996 4285747711
-0.1481213 0.095278218 0.81600016 4285747711
-0.15128191 0.1056838 0.81342852 4285747711
-0.14860708 0.10339042 0.81625009 4285747711
-0.15263578 0.11424758 0.81080961 4285747711
-0.14861588 0.11461651 0.81133336 4285747711
-0.1063391 -0.06020667 0.82099998 4285747711
-0.11177514 -0.053401381 0.82588887 4285747711
-0.10908522 -0.057887141 0.82700002 4285747711
-0.11297301 -0.044408415 0.82283336 4285747711
-0.11443545 -0.035057411 0.82464284 4285747711
-0.11667319 -0.025307212 0.82300001 4285747711
-0.12181857 -0.013099998 0.82125002 4285747711
-0.11930934 -0.015146007 0.82376927 4285747711
-0.12304062 -0.0047106347 0.82466668 4285747711
-0.12517905 0.0042567351 0.82371426 4285747711
-0.1305781 0.018765714 0.82099998 4285747711
-0.12618861 0.015269219 0.82299995 4285747711
-0.13141303 0.025031114 0.82133335 4285747711
-0.12842789 0.024361635 0.82514286 4285747711
-0.13272202 0.03465572 0.82462496 4285747711
-0.12995709 0.031504761 0.82700002 4285747711
-0.13408624 0.044530336 0.82484621 4285747711
-0.13616689 0.055776935 0.82488889 4285747711
-0.14108478 0.068976194 0.82299995 4285747711
-0.13757323 0.064231604 0.82465219 4285747711
-0.14282621 0.075116321 0.82343477 4285747711
-0.13954344 0.073321715 0.8278001 4285747711
-0.14347605 0.085186794 0.82437509 4285747711
-0.14534347 0.09454482 0.82441187 4285747711
-0.15043519 0.109479 0.82700002 4285747711
-0.14752743 0.10533694 0.82660007 4285747711
-0.15043524 0.11341336 0.82700002 4285747711
-0.1487602 0.11310726 0.82820004 4285747711
-0.1100086 -0.053025719 0.83100003 4285747711
-0.10583401 -0.055702452 0.83557141 4285747711
-0.11100096 -0.045514125 0.83350009 4285747711
-0.1090292 -0.046004128 0.83766669 4285747711
-0.11136116 -0.035941698 0.83455563 4285747711
-0.1158748 -0.024701273 0.83655548 4285747711
-0.11764573 -0.01531607 0.83537501 4285747711
-0.1205848 -0.0015866668 0.83299994 4285747711
-0.11928332 -0.0061597624 0.83500004 4285747711
-0.12246287 0.0047733327 0.83500004 4285747711
-0.1190581 0.0039952379 0.83899999 4285747711
-0.1239057 0.01112 0.83399999 4285747711
-0.12842907 0.028232858 0.83499992 4285747711
-0.13140745 0.037567429 0.83220005 4285747711
-0.12874928 0.034723133 0.83671427 4285747711
-0.13190728 0.044895358 0.83437502 4285747711
-0.1299343 0.04065429 0.83700001 4285747711
-0.13292071 0.054338451 0.83450001 4285747711
-0.13477544 0.064603433 0.83539993 4285747711
-0.14104286 0.079237133 0.83200002 4285747711
-0.13781102 0.074883915 0.83644444 4285747711
-0.14124049 0.084906824 0.83316666 4285747711
-0.13807614 0.083528444 0.8373999 4285747711
-0.14296116 0.095636256 0.83641171 4285747711
-0.1398333 0.095086679 0.83899999 4285747711
-0.14424445 0.10450967 0.83450001 4285747711
-0.13950001 0.10203426 0.83700001 4285747711
-0.14567295 0.11524348 0.83404005 4285747711
-0.1503 0.120081 0.83499998 4285747711
-0.14671388 0.12080368 0.83528572 4285747711
-0.1042243 -0.05234962 0.84309995 4285747711
-0.10735117 -0.045122102 0.84500009 4285747711
-0.11089619 -0.032673337 0.84500009 4285747711
-0.10867914 -0.03735267 0.84530002 4285747711
-0.112944 -0.024897575 0.84327275 4285747711
-0.1090286 -0.029881909 0.84799999 4285747711
-0.11538149 -0.015154968 0.84385717 4285747711
-0.11757933 -0.0044729253 0.84314287 4285747711
-0.1209438 0.0080095241 0.84100002 4285747711
-0.11807536 0.004592997 0.84476471 4285747711
-0.12265622 0.014682206 0.84410524 4285747711
-0.12501013 0.02464176 0.84484363 4285747711
-0.12622879 0.034942344 0.84423071 4285747711
-0.1306587 0.047293652 0.8416667 4285747711
-0.12881993 0.044993076 0.84490925 4285747711
-0.13123626 0.055995714 0.84230006 4285747711
-0.12887377 0.054901488 0.84633338 4285747711
-0.13319756 0.065047897 0.84471428 4285747711
-0.13460179 0.073579058 0.84476918 4285747711
-0.13707019 0.085767306 0.8416667 4285747711
-0.14105952 0.095514052 0.84275007 4285747711
-0.13905905 0.094853662 0.84400004 4285747711
-0.1440524 0.1086429 0.84500003 4285747711
-0.1427063 0.11471036 0.84466666 4285747711
-0.1391689 0.11610287 0.84466672 4285747711
-0.14290854 0.1212314 0.84300011 4285747711
-0.10170324 -0.051743619 0.85159999 4285747711
-0.10363219 -0.046187371 0.85400009 4285747711
-0.098566987 -0.048060317 0.85533339 4285747711
-0.1081204 -0.035935998 0.85360003 4285747711
-0.11095698 -0.023485715 0.85040009 4285747711
-0.10906953 -0.024415875 0.85466671 4285747711
-0.11213354 -0.014285897 0.85352391 4285747711
-0.11360335 -0.004843276 0.85328013 4285747711
-0.11477786 0.0043716673 0.85400003 4285747711
-0.12069006 0.016201429 0.85049999 4285747711
-0.11842666 0.013552383 0.85366672 4285747711
-0.12159146 0.025206666 0.85400003 4285747711
-0.12337755 0.034706663 0.85378957 4285747711
-0.12621835 0.045584965 0.85389477 4285747711
-0.12755464 0.054583553 0.85309088 4285747711
-0.13138455 0.065830268 0.85333335 4285747711
-0.12904835 0.06381309 0.85624999 4285747711
-0.13281584 0.075503699 0.85362506 4285747711
-0.1299257 0.073542863 0.85799998 4285747711
-0.13547823 0.085247912 0.8549 4285747711
-0.13749 0.094374053 0.85425001 4285747711
-0.14245789 0.10737296 0.85280007 4285747711
-0.13956855 0.1012086 0.85700005 4285747711
-0.1418234 0.11250747 0.85514289 4285747711
-0.10264564 -0.042232145 0.86108333 4285747711
-0.098298386 -0.042385243 0.86590004 4285747711
-0.10467955 -0.034475073 0.86552948 4285747711
-0.097620636 -0.038055558 0.86866671 4285747711
-0.10674626 -0.02633325 0.86645466 4285747711
-0.1105714 -0.01064762 0.86000001 4285747711
-0.10827025 -0.014764048 0.86124998 4285747711
-0.1105741 -0.0049226983 0.8621667 4285747711
-0.10864599 -0.0063828574 0.86425006 4285747711
-0.11294305 0.005324502 0.86563641 4285747711
-0.1095667 0.00082380959 0.86500013 4285747711
-0.1160828 0.014998466 0.86450011 4285747711
-0.12053999 0.024599047 0.861 4285747711
-0.1183424 0.024257351 0.86550003 4285747711
-0.12113059 0.036490954 0.86290008 4285747711
-0.11899527 0.03270508 0.86566681 4285747711
-0.1228829 0.044260286 0.86529404 4285747711
-0.12519048 0.054621428 0.86412489 4285747711
-0.13022859 0.069619037 0.86000001 4285747711
-0.12645693 0.065084532 0.86504996 4285747711
-0.13061677 0.076863617 0.86040002 4285747711
-0.12831247 0.074240558 0.86458343 4285747711
-0.13184084 0.085689202 0.86126655 4285747711
-0.12941287 0.084078573 0.86550009 4285747711
-0.13394375 0.094518259 0.86461109 4285747711
-0.12953746 0.091581278 0.86633343 4285747711
-0.14133058 0.10670456 0.8611111 4285747711
-0.13814792 0.10480878 0.86653328 4285747711
-0.14024712 0.11482713 0.86116672 4285747711
-0.10092539 -0.031245396 0.87100011 4285747711
-0.096656129 -0.033328392 0.87493765 4285747711
-0.10425647 -0.024630764 0.87370014 4285747711
-0.099506669 -0.02926667 0.87800002 4285747711
-0.10649296 -0.01614362 0.87360013 4285747711
-0.10719033 -0.0049934695 0.87442869 4285747711
-0.11147428 0.006655714 0.87350011 4285747711
-0.10879713 0.0021712377 0.87740004 4285747711
-0.11255196 0.015538095 0.87400019 4285747711
-0.11501512 0.024522014 0.8744446 4285747711
-0.11841633 0.035022978 0.87562513 4285747711
-0.12063634 0.045434423 0.87185729 4285747711
-0.11878534 0.044028383 0.87220013 4285747711
-0.12263542 0.054939847 0.87400013 4285747711
-0.12315456 0.064905964 0.87375015 4285747711
-0.12578689 0.073887259 0.87469238 4285747711
-0.1302352 0.08875905 0.87100011 4285747711
-0.12866941 0.083956614 0.87666672 4285747711
-0.13238308 0.097829767 0.87425011 4285747711
-0.1347671 0.10514571 0.87436855 4285747711
-0.1015619 -0.02266095 0.88133335 4285747711
-0.097502559 -0.025270091 0.88468188 4285747711
-0.103418 -0.015308744 0.88418192 4285747711
-0.09751372 -0.017436953 0.88880002 4285747711
-0.10593808 -0.003499456 0.88585722 4285747711
-0.11004 0.0075600003 0.88200003 4285747711
-0.10697143 0.0050551011 0.88442862 4285747711
-0.11012316 0.015131428 0.88266677 4285747711
-0.10816026 0.015123376 0.88663638 4285747711
-0.11192236 0.026196428 0.88362497 4285747711
-0.10878305 0.023178857 0.8882001 4285747711
-0.11530121 0.035579048 0.88486952 4285747711
-0.12012 0.049559999 0.88200003 4285747711
-0.11793657 0.045242053 0.88600004 4285747711
-0.12081887 0.056124002 0.88220006 4285747711
-0.1182883 0.056357246 0.88590014 4285747711
-0.12098581 0.06526459 0.88163638 4285747711
-0.11864793 0.064096831 0.88566679 4285747711
-0.12380758 0.076340474 0.88305563 4285747711
-0.1191114 0.071804762 0.88700002 4285747711
-0.12575574 0.085094698 0.88373685 4285747711
-0.13088171 0.096969374 0.88283342 4285747711
-0.12740655 0.09443786 0.88657892 4285747711
-0.1024243 -0.011474285 0.89250004 4285747711
-0.097632505 -0.012547262 0.89337498 4285747711
-0.10276581 -0.0049433336 0.89550006 4285747711
-0.097970992 -0.0061084251 0.89692307 4285747711
-0.10319391 0.0060526975 0.89552379 4285747711
-0.098848261 0.0054120631 0.89733344 4285747711
-0.1038506 0.014513907 0.8964802 4285747711
-0.097782224 0.013113651 0.89800018 4285747711
-0.10700841 0.025551965 0.89443743 4285747711
-0.11162512 0.03540485 0.89472729 4285747711
-0.10815927 0.031938333 0.89425004 4285747711
-0.11496874 0.045137659 0.89423072 4285747711
-0.11669978 0.052806035 0.89588898 4285747711
-0.1188 0.065339997 0.89099997 4285747711
-0.12116655 0.077240005 0.89685726 4285747711
-0.11659998 0.075774528 0.89774996 4285747711
-0.12290113 0.08563602 0.89672732 4285747711
-0.1187457 0.082010478 0.89700007 4285747711
-0.1021133 -0.00085809518 0.90100002 4285747711
-0.09782286 -0.002574286 0.90100002 4285747711
-0.10136761 0.0017180953 0.90200007 4285747711
-0.097985253 0.0017185715 0.90250009 4285747711
-0.1025492 0.019193335 0.90233326 4285747711
-0.10338254 0.025575431 0.90513331 4285747711
-0.09944763 0.025078095 0.90800017 4285747711
-0.11094 0.038699999 0.90300012 4285747711
-0.10536369 0.034356385 0.9056251 4285747711
-0.099447623 0.032860957 0.90800011 4285747711
-0.11181922 0.045386195 0.90200001 4285747711
-0.10705349 0.045031138 0.90556526 4285747711
-0.11368691 0.055668689 0.90404344 4285747711
-0.10749999 0.054457996 0.90605253 4285747711
-0.12126 0.069660008 0.90300012 4285747711
-0.11530509 0.065559112 0.90580028 4285747711
-0.1098248 0.063127622 0.90800017 4285747711
-0.1215286 0.071538098 0.90499997 4285747711
-0.11742382 0.073064573 0.90260011 4285747711
-0.12118266 0.0860219 0.90500009 4285747711
-0.1175591 0.081519037 0.90100002 4285747711
-0.1014 0.025133334 0.91000003 4285747711
-0.098800004 0.024700005 0.91000003 4285747711
-0.10273441 0.037303407 0.91085714 4285747711
-0.09966667 0.036400005 0.91000003 4285747711
-0.10434285 0.040867619 0.91299999 4285747711
