# .PCD v0.7 - Point Cloud Data file format
VERSION 0.7
FIELDS x y z
SIZE 4 4 4
TYPE F F F
COUNT 1 1 1
WIDTH 1454
HEIGHT 1
VIEWPOINT 0 0 0 1 0 0 0
POINTS 1454
DATA ascii
0.13889603 0.12357418 0.72037554
0.1395622 0.12357418 0.72037554
0.14022838 0.12357418 0.72037554
0.14218287 0.12411729 0.72354162
0.14302209 0.1242651 0.72440326
0.14369199 0.1242651 0.72440326
0.14436187 0.1242651 0.72440326
0.145044 0.12427558 0.72446436
0.14571394 0.12427558 0.72446436
0.1463839 0.12427558 0.72446436
0.14714541 0.12435296 0.72491544
0.14781578 0.12435296 0.72491544
0.14848614 0.12435296 0.72491544
0.15186493 0.12437504 0.72504413
0.15253541 0.12437504 0.72504413
0.15543534 0.1245497 0.72606236
0.15610677 0.1245497 0.72606236
0.15726642 0.12493758 0.72832346
0.15793994 0.12493758 0.72832346
0.15861346 0.12493758 0.72832346
0.15964447 0.12521797 0.72995806
0.16031951 0.12521797 0.72995806
0.16099453 0.12521797 0.72995806
0.16234428 0.12574056 0.73300445
0.16302212 0.12574056 0.73300445
0.16417499 0.12610543 0.73513144
0.16485479 0.12610543 0.73513144
0.16553462 0.12610543 0.73513144
0.16735616 0.12697166 0.74018115
0.16804065 0.12697166 0.74018115
0.17002375 0.12794891 0.74587804
0.1707135 0.12794891 0.74587804
0.17140326 0.12794891 0.74587804
0.17355806 0.12903816 0.75222778
0.17425367 0.12903816 0.75222778
0.089944363 0.13222897 0.77500653
0.090661049 0.13222897 0.77500653
0.091377735 0.13222897 0.77500653
0.092094429 0.13222897 0.77500653
0.091559023 0.13044509 0.7645511
0.092266046 0.13044509 0.7645511
0.092973061 0.13044509 0.7645511
0.092804134 0.12922539 0.75740224
0.093504541 0.12922539 0.75740224
0.094204955 0.12922539 0.75740224
0.094905362 0.12922539 0.75740224
0.09471079 0.12801568 0.75031209
0.09540464 0.12801568 0.75031209
0.10097492 0.12716636 0.74533415
0.10166416 0.12716636 0.74533415
0.1018699 0.12656564 0.74181318
0.10255589 0.12656564 0.74181318
0.10324188 0.12656564 0.74181318
0.10392787 0.12656564 0.74181318
0.10391255 0.12571715 0.73684019
0.10459395 0.12571715 0.73684019
0.11132815 0.12562717 0.73631281
0.1121922 0.12507227 0.73306048
0.1128701 0.12507227 0.73306048
0.11335181 0.12485618 0.73179394
0.11402854 0.12485618 0.73179394
0.11470527 0.12485618 0.73179394
0.11512826 0.12458161 0.73018467
0.1158035 0.12458161 0.73018467
0.11647874 0.12458161 0.73018467
0.12371759 0.12371759 0.72512054
0.12419654 0.12352701 0.72400355
0.12486606 0.12352701 0.72400355
0.13236021 0.12302499 0.72106111
0.13363373 0.12296969 0.72073704
0.13430023 0.12296969 0.72073704
0.13496673 0.12296969 0.72073704
0.13563323 0.12296969 0.72073704
0.13629973 0.12296969 0.72073704
0.13785191 0.12316552 0.72188479
0.13944186 0.12339102 0.72320646
0.14151378 0.1234482 0.72354162
0.14218287 0.1234482 0.72354162
0.14369199 0.12359521 0.72440326
0.145044 0.12360563 0.72446436
0.15186493 0.12370455 0.72504413
0.15253541 0.12370455 0.72504413
0.15342106 0.12387828 0.72606236
0.15543534 0.12387828 0.72606236
0.15610677 0.12387828 0.72606236
0.15726642 0.12426406 0.72832346
0.15793994 0.12426406 0.72832346
0.15861346 0.12426406 0.72832346
0.15964447 0.12454295 0.72995806
0.16031951 0.12454295 0.72995806
0.16099453 0.12454295 0.72995806
0.16234428 0.12506272 0.73300445
0.16302212 0.12506272 0.73300445
0.16417499 0.12542561 0.73513144
0.16485479 0.12542561 0.73513144
0.16553462 0.12542561 0.73513144
0.16735616 0.12628718 0.74018115
0.16804065 0.12628718 0.74018115
0.17002375 0.12725917 0.74587804
0.1707135 0.12725917 0.74587804
0.17140326 0.12725917 0.74587804
0.17355806 0.12834254 0.75222778
0.17425367 0.12834254 0.75222778
0.089944363 0.13151228 0.77500653
0.090661049 0.13151228 0.77500653
0.091377735 0.13151228 0.77500653
0.092094429 0.13151228 0.77500653
0.091559023 0.12973808 0.7645511
0.092266046 0.12973808 0.7645511
0.092973061 0.12973808 0.7645511
0.092804134 0.12852497 0.75740224
0.093504541 0.12852497 0.75740224
0.094204955 0.12852497 0.75740224
0.094905362 0.12852497 0.75740224
0.09471079 0.12732184 0.75031209
0.09540464 0.12732184 0.75031209
0.10028567 0.12647712 0.74533415
0.10097492 0.12647712 0.74533415
0.10166416 0.12647712 0.74533415
0.10255589 0.12587963 0.74181318
0.10324188 0.12587963 0.74181318
0.10392787 0.12587963 0.74181318
0.10391255 0.12503576 0.73684019
0.1115143 0.12439437 0.73306048
0.1121922 0.12439437 0.73306048
0.1128701 0.12439437 0.73306048
0.11335181 0.12417945 0.73179394
0.11512826 0.12390637 0.73018467
0.1158035 0.12390637 0.73018467
0.11647874 0.12390637 0.73018467
0.11684624 0.1235809 0.7282666
0.11751971 0.1235809 0.7282666
0.12228104 0.12295107 0.72455502
0.12295107 0.12295107 0.72455502
0.12371759 0.12304703 0.72512054
0.12419654 0.12285749 0.72400355
0.13430023 0.12230319 0.72073704
0.13496673 0.12230319 0.72073704
0.13563323 0.12230319 0.72073704
0.13629973 0.12230319 0.72073704
0.13718434 0.12249795 0.72188479
0.13785191 0.12249795 0.72188479
0.13944186 0.12272223 0.72320646
0.14011066 0.12272223 0.72320646
0.15253541 0.12303407 0.72504413
0.15409248 0.12320685 0.72606236
0.15543534 0.12320685 0.72606236
0.15610677 0.12320685 0.72606236
0.15726642 0.12359054 0.72832346
0.15793994 0.12359054 0.72832346
0.15861346 0.12359054 0.72832346
0.15964447 0.12386792 0.72995806
0.16031951 0.12386792 0.72995806
0.16099453 0.12386792 0.72995806
0.16234428 0.12438487 0.73300445
0.16302212 0.12438487 0.73300445
0.16417499 0.1247458 0.73513144
0.16485479 0.1247458 0.73513144
0.16553462 0.1247458 0.73513144
0.16735616 0.12560269 0.74018115
0.16804065 0.12560269 0.74018115
0.17002375 0.12656941 0.74587804
0.1707135 0.12656941 0.74587804
0.17140326 0.12656941 0.74587804
0.17355806 0.12764691 0.75222778
0.17425367 0.12764691 0.75222778
0.089944363 0.13079558 0.77500653
0.090661049 0.13079558 0.77500653
0.091377735 0.13079558 0.77500653
0.092094429 0.13079558 0.77500653
0.091559023 0.12903106 0.7645511
0.092266046 0.12903106 0.7645511
0.092973061 0.12903106 0.7645511
0.092804134 0.12782456 0.75740224
0.093504541 0.12782456 0.75740224
0.094204955 0.12782456 0.75740224
0.094905362 0.12782456 0.75740224
0.09471079 0.12662798 0.75031209
0.09540464 0.12662798 0.75031209
0.10097492 0.12578787 0.74533415
0.10166416 0.12578787 0.74533415
0.10392787 0.12519364 0.74181318
0.10391255 0.12435437 0.73684019
0.11132815 0.12426537 0.73631281
0.1115143 0.12371647 0.73306048
0.1121922 0.12371647 0.73306048
0.1128701 0.12371647 0.73306048
0.11512826 0.12323114 0.73018467
0.1158035 0.12323114 0.73018467
0.11647874 0.12323114 0.73018467
0.11684624 0.12290743 0.7282666
0.11751971 0.12290743 0.7282666
0.11819317 0.12290743 0.7282666
0.121611 0.12228104 0.72455502
0.12228104 0.12228104 0.72455502
0.12295107 0.12228104 0.72455502
0.12371759 0.12237648 0.72512054
0.13366839 0.12166823 0.72092396
0.13433506 0.12166823 0.72092396
0.13500173 0.12166823 0.72092396
0.13566841 0.12166823 0.72092396
0.13633507 0.12166823 0.72092396
0.13848807 0.12180278 0.72172117
0.13932368 0.12194999 0.72259349
0.13999189 0.12194999 0.72259349
0.15258794 0.12240571 0.72529376
0.15417837 0.12260371 0.72646701
0.15488982 0.12263511 0.72665304
0.15556179 0.12263511 0.72665304
0.15623376 0.12263511 0.72665304
0.15733401 0.12296984 0.72863644
0.15800782 0.12296984 0.72863644
0.15868163 0.12296984 0.72863644
0.15977366 0.12329258 0.73054874
0.16044924 0.12329258 0.73054874
0.16112481 0.12329258 0.73054874
0.16251418 0.12383649 0.73377162
0.16319273 0.12383649 0.73377162
0.16448489 0.12430017 0.7365191
0.16516598 0.12430017 0.7365191
0.16584708 0.12430017 0.7365191
0.16751032 0.12503327 0.74086291
0.16819543 0.12503327 0.74086291
0.16990283 0.12579013 0.74534756
0.17059208 0.12579013 0.74534756
0.17128135 0.12579013 0.74534756
0.17314878 0.12665193 0.75045395
0.17384276 0.12665193 0.75045395
0.089702621 0.1297293 0.77292359
0.090417385 0.1297293 0.77292359
0.091132149 0.1297293 0.77292359
0.091846913 0.1297293 0.77292359
0.091201514 0.12782298 0.7615658
0.091905773 0.12782298 0.7615658
0.092610031 0.12782298 0.7615658
0.09331429 0.12782298 0.7615658
0.093135729 0.12662274 0.7544148
0.093833379 0.12662274 0.7544148
0.094531022 0.12662274 0.7544148
0.094533384 0.12569824 0.74890667
0.095225938 0.12569824 0.74890667
0.095918491 0.12569824 0.74890667
0.09994188 0.12466977 0.74277908
0.10062876 0.12466977 0.74277908
0.10131565 0.12466977 0.74277908
0.10200254 0.12466977 0.74277908
0.10231477 0.12421492 0.74006909
0.10299915 0.12421492 0.74006909
0.10368352 0.12421492 0.74006909
0.10387152 0.12362415 0.73654926
0.10455265 0.12362415 0.73654926
0.11138844 0.12289971 0.73223311
0.11206558 0.12289971 0.73223311
0.11274271 0.12289971 0.73223311
0.11654978 0.12263064 0.73062998
0.11710782 0.12250761 0.72989696
0.11778279 0.12250761 0.72989696
0.12054773 0.12189089 0.72622257
0.12121931 0.12189089 0.72622257
0.12189089 0.12189089 0.72622257
0.1225008 0.12182956 0.7258572
0.12317204 0.12182956 0.7258572
0.12384328 0.12182956 0.7258572
0.13250089 0.1211532 0.72182745
0.1331684 0.1211532 0.72182745
0.13366839 0.12100156 0.72092396
0.13433506 0.12100156 0.72092396
0.13500173 0.12100156 0.72092396
0.13566841 0.12100156 0.72092396
0.13633507 0.12100156 0.72092396
0.13715325 0.12113536 0.72172117
0.13782066 0.12113536 0.72172117
0.13848807 0.12113536 0.72172117
0.13932368 0.12128177 0.72259349
0.14066012 0.12128177 0.72259349
0.14136961 0.12131719 0.72280449
0.14716765 0.12168989 0.725025
0.1512465 0.12173499 0.72529376
0.15191722 0.12173499 0.72529376
0.15258794 0.12173499 0.72529376
0.15417837 0.12193192 0.72646701
0.15488982 0.12196314 0.72665304
0.15556179 0.12196314 0.72665304
0.15623376 0.12196314 0.72665304
0.15733401 0.12229604 0.72863644
0.15800782 0.12229604 0.72863644
0.15868163 0.12229604 0.72863644
0.15977366 0.122617 0.73054874
0.16044924 0.122617 0.73054874
0.16112481 0.122617 0.73054874
0.16251418 0.12315794 0.73377162
0.16319273 0.12315794 0.73377162
0.16448489 0.12361908 0.7365191
0.16516598 0.12361908 0.7365191
0.16584708 0.12361908 0.7365191
0.16751032 0.12434816 0.74086291
0.16819543 0.12434816 0.74086291
0.16990283 0.12510087 0.74534756
0.17059208 0.12510087 0.74534756
0.17128135 0.12510087 0.74534756
0.17314878 0.12595794 0.75045395
0.17384276 0.12595794 0.75045395
0.089702621 0.12901454 0.77292359
0.090417385 0.12901454 0.77292359
0.091132149 0.12901454 0.77292359
0.091846913 0.12901454 0.77292359
0.091201514 0.12711872 0.7615658
0.091905773 0.12711872 0.7615658
0.092610031 0.12711872 0.7615658
0.09331429 0.12711872 0.7615658
0.093135729 0.12592509 0.7544148
0.093833379 0.12592509 0.7544148
0.094531022 0.12592509 0.7544148
0.094533384 0.12500569 0.74890667
0.095225938 0.12500569 0.74890667
0.095918491 0.12500569 0.74890667
0.09994188 0.12398288 0.74277908
0.10062876 0.12398288 0.74277908
0.10131565 0.12398288 0.74277908
0.10200254 0.12398288 0.74277908
0.10231477 0.12353054 0.74006909
0.10299915 0.12353054 0.74006909
0.10368352 0.12353054 0.74006909
0.10387152 0.12294302 0.73654926
0.10455265 0.12294302 0.73654926
0.11040522 0.12263472 0.73470229
0.11108464 0.12263472 0.73470229
0.11138844 0.12222258 0.73223311
0.11206558 0.12222258 0.73223311
0.11274271 0.12222258 0.73223311
0.11393285 0.12204675 0.73117977
0.114609 0.12204675 0.73117977
0.11519848 0.12195498 0.73062998
0.11587413 0.12195498 0.73062998
0.11654978 0.12195498 0.73062998
0.11710782 0.12183263 0.72989696
0.11778279 0.12183263 0.72989696
0.11845776 0.12183263 0.72989696
0.1225008 0.12115832 0.7258572
0.12556104 0.12087344 0.72415042
0.13126478 0.12057655 0.72237176
0.13250089 0.12048569 0.72182745
0.1331684 0.12048569 0.72182745
0.13366839 0.12033488 0.72092396
0.13433506 0.12033488 0.72092396
0.13500173 0.12033488 0.72092396
0.13566841 0.12033488 0.72092396
0.13633507 0.12033488 0.72092396
0.13782066 0.12046795 0.72172117
0.13848807 0.12046795 0.72172117
0.13932368 0.12061355 0.72259349
0.13999189 0.12061355 0.72259349
0.14066012 0.12061355 0.72259349
0.14136961 0.12064877 0.72280449
0.14203802 0.12064877 0.72280449
0.14296432 0.1208668 0.72411066
0.14357683 0.12081874 0.72382277
0.14424619 0.12081874 0.72382277
0.14716765 0.12101942 0.725025
0.1477188 0.12092175 0.72443986
0.14838873 0.12092175 0.72443986
0.1512465 0.12106428 0.72529376
0.15191722 0.12106428 0.72529376
0.15258794 0.12106428 0.72529376
0.15350656 0.12126011 0.72646701
0.15417837 0.12126011 0.72646701
0.15556179 0.12129117 0.72665304
0.15623376 0.12129117 0.72665304
0.15800782 0.12162223 0.72863644
0.15868163 0.12162223 0.72863644
0.15977366 0.12194142 0.73054874
0.16044924 0.12194142 0.73054874
0.16112481 0.12194142 0.73054874
0.16251418 0.12247938 0.73377162
0.16319273 0.12247938 0.73377162
0.16448489 0.12293798 0.7365191
0.16516598 0.12293798 0.7365191
0.16584708 0.12293798 0.7365191
0.16751032 0.12366304 0.74086291
0.16819543 0.12366304 0.74086291
0.16990283 0.12441161 0.74534756
0.17059208 0.12441161 0.74534756
0.17128135 0.12441161 0.74534756
0.17314878 0.12526396 0.75045395
0.17384276 0.12526396 0.75045395
0.089702621 0.12829977 0.77292359
0.090417385 0.12829977 0.77292359
0.091132149 0.12829977 0.77292359
0.091846913 0.12829977 0.77292359
0.091201514 0.12641446 0.7615658
0.091905773 0.12641446 0.7615658
0.092610031 0.12641446 0.7615658
0.09331429 0.12641446 0.7615658
0.093135729 0.12522745 0.7544148
0.093833379 0.12522745 0.7544148
0.094531022 0.12522745 0.7544148
0.094533384 0.12431314 0.74890667
0.095225938 0.12431314 0.74890667
0.095918491 0.12431314 0.74890667
0.098923467 0.1237405 0.74545693
0.099612825 0.1237405 0.74545693
0.09994188 0.123296 0.74277908
0.10062876 0.123296 0.74277908
0.10131565 0.123296 0.74277908
0.10200254 0.123296 0.74277908
0.10231477 0.12284616 0.74006909
0.10299915 0.12284616 0.74006909
0.10368352 0.12284616 0.74006909
0.10387152 0.1222619 0.73654926
0.10972581 0.12195531 0.73470229
0.11040522 0.12195531 0.73470229
0.11108464 0.12195531 0.73470229
0.11138844 0.12154544 0.73223311
0.11206558 0.12154544 0.73223311
0.11274271 0.12154544 0.73223311
0.11325669 0.1213706 0.73117977
0.11393285 0.1213706 0.73117977
0.114609 0.1213706 0.73117977
0.11519848 0.12127934 0.73062998
0.11587413 0.12127934 0.73062998
0.11654978 0.12127934 0.73062998
0.11710782 0.12115766 0.72989696
0.11778279 0.12115766 0.72989696
0.11845776 0.12115766 0.72989696
0.12422173 0.12020378 0.72415042
0.12489139 0.12020378 0.72415042
0.12556104 0.12020378 0.72415042
0.12612022 0.12009856 0.72351658
0.12678929 0.12009856 0.72351658
0.12745836 0.12009856 0.72351658
0.12865935 0.11997067 0.72274613
0.12932771 0.11997067 0.72274613
0.12999608 0.11997067 0.72274613
0.13191414 0.12050172 0.72594535
0.13617608 0.120116 0.72362167
0.13684525 0.120116 0.72362167
0.13760105 0.12019169 0.72407758
0.13827065 0.12019169 0.72407758
0.14220899 0.12069275 0.7270962
0.14288138 0.12069275 0.7270962
0.15349647 0.12111042 0.72961235
0.15567741 0.12123252 0.73034793
0.15635279 0.12123252 0.73034793
0.15702818 0.12123252 0.73034793
0.15804128 0.12149213 0.73191196
0.15871812 0.12149213 0.73191196
0.15939496 0.12149213 0.73191196
0.16046441 0.12179012 0.73370713
0.1611429 0.12179012 0.73370713
0.16258186 0.12236246 0.73715508
0.16326354 0.12236246 0.73715508
0.16394523 0.12236246 0.73715508
0.16527368 0.12284318 0.74005115
0.16595805 0.12284318 0.74005115
0.16664241 0.12284318 0.74005115
0.16831809 0.12357096 0.74443555
0.16900651 0.12357096 0.74443555
0.1706093 0.12423679 0.74844676
0.17130142 0.12423679 0.74844676
0.17199355 0.12423679 0.74844676
0.090007119 0.1280181 0.77554727
0.090724304 0.1280181 0.77554727
0.091441497 0.1280181 0.77554727
0.092158683 0.1280181 0.77554727
0.09142065 0.12601225 0.76339567
0.0921266 0.12601225 0.76339567
0.092832558 0.12601225 0.76339567
0.092657708 0.12482567 0.75620723
0.093357012 0.12482567 0.75620723
0.094056316 0.12482567 0.75620723
0.09475562 0.12482567 0.75620723
0.094898537 0.12409809 0.75179946
0.095593765 0.12409809 0.75179946
0.096288994 0.12409809 0.75179946
0.09934435 0.12357468 0.74862862
0.10003665 0.12357468 0.74862862
0.10033347 0.12308952 0.74568945
0.10102306 0.12308952 0.74568945
0.10171263 0.12308952 0.74568945
0.102028 0.12263972 0.74296451
0.10271506 0.12263972 0.74296451
0.10340212 0.12263972 0.74296451
0.10365274 0.12212551 0.73984933
0.10433692 0.12212551 0.73984933
0.10502109 0.12212551 0.73984933
0.11017349 0.12177071 0.73769993
0.11085568 0.12177071 0.73769993
0.11153787 0.12177071 0.73769993
0.11190001 0.12142342 0.735596
0.11258025 0.12142342 0.735596
0.1132605 0.12142342 0.735596
0.11381446 0.12128884 0.73478073
0.11449394 0.12128884 0.73478073
0.12107109 0.1203966 0.72937542
0.12174558 0.1203966 0.72937542
0.12289092 0.12019742 0.72816879
0.1235643 0.12019742 0.72816879
0.12423767 0.12019742 0.72816879
0.12480549 0.12009584 0.72755343
0.1254783 0.12009584 0.72755343
0.1261511 0.12009584 0.72755343
0.12796085 0.11990032 0.72636896
0.13124283 0.1198304 0.72594535
0.13617608 0.11944684 0.72362167
0.13684525 0.11944684 0.72362167
0.13760105 0.11952209 0.72407758
0.13827065 0.11952209 0.72407758
0.15184733 0.12019845 0.72817504
0.15252072 0.12019845 0.72817504
0.15349647 0.12043571 0.72961235
0.15417118 0.12043571 0.72961235
0.15484589 0.12043571 0.72961235
0.15567741 0.12055713 0.73034793
0.15635279 0.12055713 0.73034793
0.15702818 0.12055713 0.73034793
0.15804128 0.1208153 0.73191196
0.15871812 0.1208153 0.73191196
0.15939496 0.1208153 0.73191196
0.16046441 0.12111162 0.73370713
0.1611429 0.12111162 0.73370713
0.16258186 0.12168077 0.73715508
0.16326354 0.12168077 0.73715508
0.16394523 0.12168077 0.73715508
0.16527368 0.12215882 0.74005115
0.16595805 0.12215882 0.74005115
0.16664241 0.12215882 0.74005115
0.16831809 0.12288254 0.74443555
0.16900651 0.12288254 0.74443555
0.1706093 0.12354466 0.74844676
0.17130142 0.12354466 0.74844676
0.17199355 0.12354466 0.74844676
0.17411336 0.12456609 0.75463462
0.090724304 0.1273009 0.77554727
0.091441497 0.1273009 0.77554727
0.092158683 0.1273009 0.77554727
0.09142065 0.12530631 0.76339567
0.0921266 0.12530631 0.76339567
0.092657708 0.12412637 0.75620723
0.093357012 0.12412637 0.75620723
0.094056316 0.12412637 0.75620723
0.09475562 0.12412637 0.75620723
0.094898537 0.12340286 0.75179946
0.095593765 0.12340286 0.75179946
0.096288994 0.12340286 0.75179946
0.098652057 0.12288239 0.74862862
0.09934435 0.12288239 0.74862862
0.10033347 0.12239995 0.74568945
0.10102306 0.12239995 0.74568945
0.10171263 0.12239995 0.74568945
0.102028 0.12195266 0.74296451
0.10271506 0.12195266 0.74296451
0.10340212 0.12195266 0.74296451
0.10365274 0.12144133 0.73984933
0.10433692 0.12144133 0.73984933
0.1094913 0.12108852 0.73769993
0.11190001 0.12074317 0.735596
0.11258025 0.12074317 0.735596
0.12107109 0.11972211 0.72937542
0.12289092 0.11952405 0.72816879
0.1235643 0.11952405 0.72816879
0.12480549 0.11942304 0.72755343
0.1254783 0.11942304 0.72755343
0.1261511 0.11942304 0.72755343
0.12728915 0.11922862 0.72636896
0.12796085 0.11922862 0.72636896
0.13617608 0.11877766 0.72362167
0.13684525 0.11877766 0.72362167
0.15417118 0.119761 0.72961235
0.15484589 0.119761 0.72961235
0.15567741 0.11988173 0.73034793
0.15702818 0.11988173 0.73034793
0.15804128 0.12013846 0.73191196
0.15871812 0.12013846 0.73191196
0.15939496 0.12013846 0.73191196
0.16046441 0.12043313 0.73370713
0.1611429 0.12043313 0.73370713
0.16258186 0.12099908 0.73715508
0.16326354 0.12099908 0.73715508
0.16394523 0.12099908 0.73715508
0.16527368 0.12147445 0.74005115
0.16595805 0.12147445 0.74005115
0.16664241 0.12147445 0.74005115
0.16831809 0.12219413 0.74443555
0.16900651 0.12219413 0.74443555
0.1706093 0.12285254 0.74844676
0.17130142 0.12285254 0.74844676
0.17199355 0.12285254 0.74844676
0.17411336 0.12386823 0.75463462
0.17481121 0.12386823 0.75463462
0.090007119 0.12658373 0.77554727
0.090724304 0.12658373 0.77554727
0.091441497 0.12658373 0.77554727
0.092158683 0.12658373 0.77554727
0.09142065 0.12460035 0.76339567
0.0921266 0.12460035 0.76339567
0.092832558 0.12460035 0.76339567
0.092657708 0.12342706 0.75620723
0.093357012 0.12342706 0.75620723
0.094056316 0.12342706 0.75620723
0.094898537 0.12270764 0.75179946
0.095593765 0.12270764 0.75179946
0.098652057 0.1221901 0.74862862
0.10033347 0.12171037 0.74568945
0.10102306 0.12171037 0.74568945
0.102028 0.12126561 0.74296451
0.10271506 0.12126561 0.74296451
0.10340212 0.12126561 0.74296451
0.12066104 0.1193091 0.73097748
0.12242007 0.11904761 0.72937542
0.12349436 0.11878341 0.72775668
0.12706013 0.11834361 0.72506213
0.12773064 0.11834361 0.72506213
0.12840113 0.11834361 0.72506213
0.13623388 0.11815862 0.72392881
0.14036782 0.11825738 0.72453386
0.15636781 0.1192178 0.73041809
0.15704326 0.1192178 0.73041809
0.15792315 0.11937232 0.73136479
0.15859947 0.11937232 0.73136479
0.1592758 0.11937232 0.73136479
0.16027845 0.11961585 0.73285687
0.16095616 0.11961585 0.73285687
0.16163388 0.11961585 0.73285687
0.16302869 0.12014432 0.73609465
0.16370939 0.12014432 0.73609465
0.16536362 0.12085582 0.74045384
0.16604835 0.12085582 0.74045384
0.16673309 0.12085582 0.74045384
0.16853316 0.12166096 0.74538672
0.16922246 0.12166096 0.74538672
0.17097706 0.12242374 0.75006008
0.17167068 0.12242374 0.75006008
0.173903 0.12351663 0.75675595
0.17460281 0.12351663 0.75675595
0.17530262 0.12351663 0.75675595
0.091247439 0.12365966 0.7619493
0.091952056 0.12365966 0.7619493
0.092656672 0.12365966 0.7619493
0.098407932 0.12119714 0.74677604
0.099098511 0.12119714 0.74677604
0.099789098 0.12119714 0.74677604
0.100155 0.12080552 0.74436301
0.1015317 0.12080552 0.74436301
0.10189212 0.12041796 0.74197501
0.10257826 0.12041796 0.74197501
0.10326441 0.12041796 0.74197501
0.11329667 0.11942082 0.73583096
0.11359767 0.11902323 0.73338115
0.11916263 0.11848748 0.73008007
0.11983777 0.11848748 0.73008007
0.12051291 0.11848748 0.73008007
0.12176452 0.11839154 0.72948891
0.12243912 0.11839154 0.72948891
0.12349436 0.11811041 0.72775668
0.12416736 0.11811041 0.72775668
0.12706013 0.11767311 0.72506213
0.12986308 0.1177828 0.72573805
0.13053422 0.1177828 0.72573805
0.13120535 0.1177828 0.72573805
0.13195342 0.11785153 0.72616154
0.13556443 0.11748917 0.72392881
0.13623388 0.11748917 0.72392881
0.13690333 0.11748917 0.72392881
0.13757575 0.11749171 0.72394443
0.13824522 0.11749171 0.72394443
0.14190276 0.11774911 0.72553045
0.14478315 0.11790926 0.72651726
0.15135093 0.11779197 0.72579455
0.15636781 0.11854234 0.73041809
0.15704326 0.11854234 0.73041809
0.15792315 0.11869599 0.73136479
0.15859947 0.11869599 0.73136479
0.1592758 0.11869599 0.73136479
0.16027845 0.11893814 0.73285687
0.16095616 0.11893814 0.73285687
0.16163388 0.11893814 0.73285687
0.16302869 0.11946362 0.73609465
0.16370939 0.11946362 0.73609465
0.16536362 0.12017109 0.74045384
0.16604835 0.12017109 0.74045384
0.16673309 0.12017109 0.74045384
0.16853316 0.12097166 0.74538672
0.16922246 0.12097166 0.74538672
0.17097706 0.12173012 0.75006008
0.17167068 0.12173012 0.75006008
0.173903 0.12281682 0.75675595
0.17460281 0.12281682 0.75675595
0.17530262 0.12281682 0.75675595
0.091247439 0.12295505 0.7619493
0.091952056 0.12295505 0.7619493
0.092656672 0.12295505 0.7619493
0.098407932 0.12050655 0.74677604
0.099098511 0.12050655 0.74677604
0.099789098 0.12050655 0.74677604
0.100155 0.12011717 0.74436301
0.10084335 0.12011717 0.74436301
0.1015317 0.12011717 0.74436301
0.10189212 0.11973182 0.74197501
0.10257826 0.11973182 0.74197501
0.10326441 0.11973182 0.74197501
0.1036638 0.11940154 0.73992831
0.11261621 0.11874036 0.73583096
0.11329667 0.11874036 0.73583096
0.11359767 0.11834504 0.73338115
0.11495406 0.11834504 0.73338115
0.11730386 0.11797996 0.7311188
0.11797996 0.11797996 0.7311188
0.11865606 0.11797996 0.7311188
0.11916263 0.11781234 0.73008007
0.11983777 0.11781234 0.73008007
0.12051291 0.11781234 0.73008007
0.12108993 0.11771695 0.72948891
0.12176452 0.11771695 0.72948891
0.12243912 0.11771695 0.72948891
0.12282137 0.11743742 0.72775668
0.12416736 0.11743742 0.72775668
0.12638964 0.1170026 0.72506213
0.12706013 0.1170026 0.72506213
0.12773064 0.1170026 0.72506213
0.12840113 0.1170026 0.72506213
0.12986308 0.11711168 0.72573805
0.13053422 0.11711168 0.72573805
0.13120535 0.11711168 0.72573805
0.13195342 0.11718001 0.72616154
0.13556443 0.11681972 0.72392881
0.13623388 0.11681972 0.72392881
0.13690333 0.11681972 0.72392881
0.13757575 0.11682224 0.72394443
0.13824522 0.11682224 0.72394443
0.13891469 0.11682224 0.72394443
0.13969781 0.11691736 0.72453386
0.14036782 0.11691736 0.72453386
0.14123182 0.11707817 0.72553045
0.14190276 0.11707817 0.72553045
0.1425737 0.11707817 0.72553045
0.14343946 0.11723741 0.72651726
0.14411131 0.11723741 0.72651726
0.14478315 0.11723741 0.72651726
0.15135093 0.11712079 0.72579455
0.15202211 0.11712079 0.72579455
0.15269329 0.11712079 0.72579455
0.15569235 0.11786689 0.73041809
0.15636781 0.11786689 0.73041809
0.15704326 0.11786689 0.73041809
0.15792315 0.11801966 0.73136479
0.15859947 0.11801966 0.73136479
0.1592758 0.11801966 0.73136479
0.16027845 0.11826043 0.73285687
0.16095616 0.11826043 0.73285687
0.16163388 0.11826043 0.73285687
0.16302869 0.11878291 0.73609465
0.16536362 0.11948635 0.74045384
0.16604835 0.11948635 0.74045384
0.16853316 0.12028236 0.74538672
0.16922246 0.12028236 0.74538672
0.17097706 0.1210365 0.75006008
0.17167068 0.1210365 0.75006008
0.173903 0.12211701 0.75675595
0.17460281 0.12211701 0.75675595
0.17530262 0.12211701 0.75675595
0.098407932 0.11981598 0.74677604
0.099789098 0.11981598 0.74677604
0.100155 0.11942881 0.74436301
0.1036638 0.11871729 0.73992831
0.10951006 0.11838003 0.73782623
0.10994889 0.11811846 0.73619598
0.11062969 0.11811846 0.73619598
0.11131048 0.11811846 0.73619598
0.11193575 0.1180599 0.73583096
0.11261621 0.1180599 0.73583096
0.11329667 0.1180599 0.73583096
0.11359767 0.11766684 0.73338115
0.11427587 0.11766684 0.73338115
0.11495406 0.11766684 0.73338115
0.11551781 0.11755038 0.73265529
0.11619533 0.11755038 0.73265529
0.11687285 0.11755038 0.73265529
0.11730386 0.11730386 0.7311188
0.11797996 0.11730386 0.7311188
0.11865606 0.11730386 0.7311188
0.11916263 0.1171372 0.73008007
0.11983777 0.1171372 0.73008007
0.12051291 0.1171372 0.73008007
0.12118805 0.1171372 0.73008007
0.12186319 0.1171372 0.73008007
0.12282931 0.11741535 0.73181367
0.1239262 0.11717273 0.7303015
0.12512453 0.11703022 0.72941327
0.12579904 0.11703022 0.72941327
0.12647358 0.11703022 0.72941327
0.12690786 0.11680909 0.72803503
0.1275811 0.11680909 0.72803503
0.12825435 0.11680909 0.72803503
0.1289276 0.11680909 0.72803503
0.13587047 0.11641248 0.72556311
0.1372124 0.11641248 0.72556311
0.13788337 0.11641248 0.72556311
0.13855432 0.11641248 0.72556311
0.13948345 0.11662834 0.7269085
0.14310525 0.11684123 0.72823542
0.14394805 0.11697886 0.72909319
0.14462227 0.11697886 0.72909319
0.1452965 0.11697886 0.72909319
0.1519049 0.11687583 0.72845107
0.15257853 0.11687583 0.72845107
0.1562569 0.11761638 0.73306662
0.15693481 0.11761638 0.73306662
0.15761271 0.11761638 0.73306662
0.15852958 0.11779393 0.7341733
0.15920851 0.11779393 0.7341733
0.15988743 0.11779393 0.7341733
0.16101274 0.1181214 0.73621428
0.16169354 0.1181214 0.73621428
0.16286738 0.11848005 0.73844963
0.16355026 0.11848005 0.73844963
0.16423315 0.11848005 0.73844963
0.16575837 0.11908521 0.74222142
0.16644473 0.11908521 0.74222142
0.16855529 0.12009998 0.74854612
0.16924751 0.12009998 0.74854612
0.16993973 0.12009998 0.74854612
0.17211446 0.12114345 0.75504982
0.1728127 0.12114345 0.75504982
0.10149813 0.11951146 0.74919623
0.10219096 0.11951146 0.74919623
0.10322753 0.11910868 0.74667132
0.10391802 0.11910868 0.74667132
0.10745629 0.11844224 0.74249345
0.11125016 0.11809633 0.74032503
0.11179886 0.11795293 0.73942608
0.11248264 0.11795293 0.73942608
0.11316643 0.11795293 0.73942608
0.11344232 0.11753033 0.73677689
0.11412366 0.11753033 0.73677689
0.11532222 0.11736332 0.73572993
0.11600259 0.11736332 0.73572993
0.11668295 0.11736332 0.73572993
0.11708731 0.11708731 0.73399967
0.11776607 0.11708731 0.73399967
0.11844485 0.11708731 0.73399967
0.11912361 0.11708731 0.73399967
0.1202589 0.11687133 0.73264569
0.12079907 0.1167386 0.73181367
0.12147582 0.1167386 0.73181367
0.12215257 0.1167386 0.73181367
0.12282931 0.1167386 0.73181367
0.12325085 0.11649738 0.7303015
0.13587047 0.11574151 0.72556311
0.13654144 0.11574151 0.72556311
0.1372124 0.11574151 0.72556311
0.13788337 0.11574151 0.72556311
0.13855432 0.11574151 0.72556311
0.13948345 0.11595613 0.7269085
0.1519049 0.1162022 0.72845107
0.1562569 0.11693847 0.73306662
0.15693481 0.11693847 0.73306662
0.15761271 0.11693847 0.73306662
0.15852958 0.11711501 0.7341733
0.15920851 0.11711501 0.7341733
0.15988743 0.11711501 0.7341733
0.16101274 0.11744058 0.73621428
0.16169354 0.11744058 0.73621428
0.16855529 0.11940775 0.74854612
0.16924751 0.11940775 0.74854612
0.16993973 0.11940775 0.74854612
0.1728127 0.12044522 0.75504982
0.10044249 0.1192103 0.75166577
0.10080532 0.11881864 0.74919623
0.10149813 0.11881864 0.74919623
0.10219096 0.11881864 0.74919623
0.10253704 0.1184182 0.74667132
0.10322753 0.1184182 0.74667132
0.10391802 0.1184182 0.74667132
0.10561439 0.11799914 0.74402899
0.10676967 0.11775561 0.74249345
0.10745629 0.11775561 0.74249345
0.10803484 0.11763794 0.74175149
0.10988093 0.11741171 0.74032503
0.11179886 0.11726914 0.73942608
0.11248264 0.11726914 0.73942608
0.11412366 0.116849 0.73677689
0.11480499 0.116849 0.73677689
0.11532222 0.11668295 0.73572993
0.11600259 0.11668295 0.73572993
0.11668295 0.11668295 0.73572993
0.11708731 0.11640854 0.73399967
0.11776607 0.11640854 0.73399967
0.11844485 0.11640854 0.73399967
0.11912361 0.11640854 0.73399967
0.11958139 0.11619381 0.73264569
0.1202589 0.11619381 0.73264569
0.12079907 0.11606185 0.73181367
0.12147582 0.11606185 0.73181367
0.12215257 0.11606185 0.73181367
0.12282931 0.11606185 0.73181367
0.13587047 0.11507055 0.72556311
0.13654144 0.11507055 0.72556311
0.1372124 0.11507055 0.72556311
0.13788337 0.11507055 0.72556311
0.13855432 0.11507055 0.72556311
0.15354207 0.11574711 0.72982907
0.15421699 0.11574711 0.72982907
0.15489189 0.11574711 0.72982907
0.1562569 0.11626057 0.73306662
0.15693481 0.11626057 0.73306662
0.15761271 0.11626057 0.73306662
0.15852958 0.11643608 0.7341733
0.15920851 0.11643608 0.7341733
0.15988743 0.11643608 0.7341733
0.1718253 0.11954581 0.75378132
0.17252237 0.11954581 0.75378132
0.10044249 0.11851519 0.75166577
0.10080532 0.11812582 0.74919623
0.10219096 0.11812582 0.74919623
0.10253704 0.11772772 0.74667132
0.10322753 0.11772772 0.74667132
0.10391802 0.11772772 0.74667132
0.10423831 0.1173111 0.74402899
0.10492635 0.1173111 0.74402899
0.10561439 0.1173111 0.74402899
0.10608304 0.11706899 0.74249345
0.10745629 0.11706899 0.74249345
0.11178041 0.11656612 0.73930407
0.11246409 0.11656612 0.73930407
0.11344232 0.11616766 0.73677689
0.11412366 0.11616766 0.73677689
0.11480499 0.11616766 0.73677689
0.11529285 0.11597304 0.73554254
0.11597304 0.11597304 0.73554254
0.11665323 0.11597304 0.73554254
0.11709136 0.11573378 0.73402506
0.11777015 0.11573378 0.73402506
0.11844894 0.11573378 0.73402506
0.11902541 0.11563437 0.73339456
0.11970361 0.11563437 0.73339456
0.12038182 0.11563437 0.73339456
0.12106003 0.11563437 0.73339456
0.12150311 0.11541103 0.73197806
0.12218001 0.11541103 0.73197806
0.13271059 0.11456787 0.72663045
0.13400269 0.1145236 0.72634965
0.13467439 0.1145236 0.72634965
0.13534607 0.1145236 0.72634965
0.13668945 0.1145236 0.72634965
0.13737383 0.11453418 0.72641677
0.13871734 0.11453418 0.72641677
0.13940603 0.11454809 0.72650498
0.15606084 0.11543764 0.73214686
0.15673791 0.11543764 0.73214686
0.15741496 0.11543764 0.73214686
0.15830468 0.11559293 0.73313171
0.15898263 0.11559293 0.73313171
0.15966059 0.11559293 0.73313171
0.1718253 0.11884875 0.75378132
0.17252237 0.11884875 0.75378132
0.1003746 0.11774045 0.7511577
0.10136048 0.11727373 0.74818009
0.10205235 0.11727373 0.74818009
0.10248964 0.11698313 0.74632615
0.1031798 0.11698313 0.74632615
0.10438055 0.1167822 0.74504429
0.10506953 0.1167822 0.74504429
0.10575851 0.1167822 0.74504429
0.10604098 0.11633622 0.742199
0.10741367 0.11633622 0.742199
0.11246409 0.11588245 0.73930407
0.11344885 0.11549298 0.73681933
0.11413023 0.11549298 0.73681933
0.1148116 0.11549298 0.73681933
0.11529285 0.11529285 0.73554254
0.11709136 0.11505499 0.73402506
0.11902541 0.11495616 0.73339456
0.11970361 0.11495616 0.73339456
0.12038182 0.11495616 0.73339456
0.12106003 0.11495616 0.73339456
0.12150311 0.11473413 0.73197806
0.12933791 0.11388455 0.72655791
0.1300098 0.11388455 0.72655791
0.13068168 0.11388455 0.72655791
0.13135357 0.11388455 0.72655791
0.13203864 0.11389592 0.72663045
0.13271059 0.11389592 0.72663045
0.13338254 0.11389592 0.72663045
0.13400269 0.1138519 0.72634965
0.13467439 0.1138519 0.72634965
0.13534607 0.1138519 0.72634965
0.13601777 0.1138519 0.72634965
0.13668945 0.1138519 0.72634965
0.13737383 0.11386243 0.72641677
0.13804558 0.11386243 0.72641677
0.13871734 0.11386243 0.72641677
0.13940603 0.11387625 0.72650498
0.14007786 0.11387625 0.72650498
0.14074969 0.11387625 0.72650498
0.15476544 0.11430389 0.72923326
0.15606084 0.11476059 0.73214686
0.15673791 0.11476059 0.73214686
0.15741496 0.11476059 0.73214686
0.15830468 0.11491496 0.73313171
0.1718253 0.11815169 0.75378132
0.17252237 0.11815169 0.75378132
0.099679969 0.11704582 0.7511577
0.1003746 0.11704582 0.7511577
0.10066859 0.11658184 0.74818009
0.10136048 0.11658184 0.74818009
0.10205235 0.11658184 0.74818009
0.10248964 0.11629296 0.74632615
0.10438055 0.11609322 0.74504429
0.10604098 0.11564986 0.742199
0.10672732 0.11564986 0.742199
0.10741367 0.11564986 0.742199
0.11246409 0.11519878 0.73930407
0.12038182 0.11427795 0.73339456
0.12106003 0.11427795 0.73339456
0.12625854 0.11346434 0.72817308
0.12866603 0.11321266 0.72655791
0.12933791 0.11321266 0.72655791
0.1300098 0.11321266 0.72655791
0.13068168 0.11321266 0.72655791
0.13135357 0.11321266 0.72655791
0.13203864 0.11322396 0.72663045
0.13271059 0.11322396 0.72663045
0.13338254 0.11322396 0.72663045
0.13400269 0.11318021 0.72634965
0.13467439 0.11318021 0.72634965
0.13534607 0.11318021 0.72634965
0.13601777 0.11318021 0.72634965
0.13668945 0.11318021 0.72634965
0.13737383 0.11319067 0.72641677
0.13804558 0.11319067 0.72641677
0.13871734 0.11319067 0.72641677
0.13940603 0.11320441 0.72650498
0.14007786 0.11320441 0.72650498
0.14074969 0.11320441 0.72650498
0.15606084 0.11408354 0.73214686
0.15673791 0.11408354 0.73214686
0.15966059 0.114237 0.73313171
0.17104639 0.11644977 0.74733251
0.098985337 0.11635118 0.7511577
0.099679969 0.11635118 0.7511577
0.1003746 0.11635118 0.7511577
0.10066859 0.11588997 0.74818009
0.10604098 0.11496352 0.742199
0.10672732 0.11496352 0.742199
0.10741367 0.11496352 0.742199
0.10784299 0.11469016 0.74043423
0.10852771 0.11469016 0.74043423
0.10921242 0.11469016 0.74043423
0.10989714 0.11469016 0.74043423
0.12481963 0.11331864 0.73157972
0.12845169 0.11294308 0.72915518
0.12912597 0.11294308 0.72915518
0.12980026 0.11294308 0.72915518
0.13033292 0.11282048 0.72836363
0.13100646 0.11282048 0.72836363
0.13168003 0.11282048 0.72836363
0.13235357 0.11282048 0.72836363
0.13302714 0.11282048 0.72836363
0.13377821 0.1128859 0.72878599
0.13438244 0.11282736 0.7284081
0.13505603 0.11282736 0.7284081
0.13572964 0.11282736 0.7284081
0.14219683 0.1131495 0.73048782
0.14354786 0.1131495 0.73048782
0.14437969 0.11327213 0.73127949
0.14505595 0.11327213 0.73127949
0.1552992 0.11334474 0.73174822
0.15781283 0.11369313 0.7339974
0.15878356 0.11390255 0.73534948
0.12912597 0.1122688 0.72915518
0.12980026 0.1122688 0.72915518
0.13033292 0.11214692 0.72836363
0.13100646 0.11214692 0.72836363
0.13168003 0.11214692 0.72836363
0.13235357 0.11214692 0.72836363
0.13302714 0.11214692 0.72836363
0.13377821 0.11221195 0.72878599
0.13438244 0.11215377 0.7284081
0.13505603 0.11215377 0.7284081
0.15645531 0.11301436 0.7339974
0.15713407 0.11301436 0.7339974
0.15781283 0.11301436 0.7339974
0.13302714 0.11147337 0.72836363
0.13377821 0.11153801 0.72878599
0.10998394 0.11272497 0.74101907
0.1106692 0.11272497 0.74101907
0.11357085 0.11220664 0.73761165
0.11425295 0.11220664 0.73761165
0.11532827 0.11192626 0.73576856
0.11600868 0.11192626 0.73576856
0.11668908 0.11192626 0.73576856
0.11736948 0.11192626 0.73576856
0.11775958 0.11165101 0.73395914
0.1184383 0.11165101 0.73395914
0.11911704 0.11165101 0.73395914
0.10895132 0.11238828 0.7433244
0.10998394 0.11203972 0.74101907
0.1106692 0.11203972 0.74101907
0.11357085 0.11152453 0.73761165
0.11425295 0.11152453 0.73761165
0.11493506 0.11152453 0.73761165
0.11532827 0.11124586 0.73576856
0.11600868 0.11124586 0.73576856
0.11668908 0.11124586 0.73576856
0.11736948 0.11124586 0.73576856
0.11775958 0.11097228 0.73395914
0.1184383 0.11097228 0.73395914
0.11911704 0.11097228 0.73395914
0.12032709 0.11083651 0.73306113
0.10826393 0.11170088 0.7433244
0.10998394 0.11135446 0.74101907
0.1106692 0.11135446 0.74101907
0.11357085 0.11084242 0.73761165
0.11425295 0.11084242 0.73761165
0.11493506 0.11084242 0.73761165
0.11736948 0.11056545 0.73576856
0.11775958 0.11029355 0.73395914
0.1184383 0.11029355 0.73395914
0.11911704 0.11029355 0.73395914
0.11964919 0.11015861 0.73306113
0.12032709 0.11015861 0.73306113
0.12100499 0.11015861 0.73306113
0.11435085 0.1102547 0.73824364
0.11503354 0.1102547 0.73824364
0.11567593 0.1102163 0.73798656
0.11635839 0.1102163 0.73798656
0.1173979 0.10991166 0.73594671
0.11807847 0.10991166 0.73594671
0.11875904 0.10991166 0.73594671
0.11926242 0.1097486 0.73485494
0.11994197 0.1097486 0.73485494
0.12062153 0.1097486 0.73485494
0.13169779 0.10824017 0.72475475
0.11435085 0.10957201 0.73824364
0.11503354 0.10957201 0.73824364
0.11567593 0.10953385 0.73798656
0.11635839 0.10953385 0.73798656
0.11704084 0.10953385 0.73798656
0.11875904 0.10923109 0.73594671
0.11994197 0.10906905 0.73485494
0.12062153 0.10906905 0.73485494
0.11032638 0.10963899 0.74332625
0.11101377 0.10963899 0.74332625
0.11170116 0.10963899 0.74332625
0.11567593 0.1088514 0.73798656
0.11635839 0.1088514 0.73798656
0.11704084 0.1088514 0.73798656
0.092696369 0.11707071 0.79871923
0.091238827 0.11635721 0.79889166
0.091977604 0.11635721 0.79889166
0.10911635 0.10911635 0.74917692
0.11983313 0.1063308 0.73005182
0.120516 0.10633764 0.73009878
0.12108981 0.10624871 0.72948819
0.14732572 0.10523266 0.72251213
0.15694882 0.10452195 0.71763247
0.091238827 0.11561844 0.79889166
0.10911635 0.10842355 0.74917692
0.11915801 0.10565569 0.73005182
0.11983313 0.10565569 0.73005182
0.120516 0.10566249 0.73009878
0.12108981 0.10557412 0.72948819
0.1217644 0.10557412 0.72948819
0.15225123 0.10473546 0.72369331
0.15881853 0.10509557 0.72618151
0.15964077 0.10519487 0.72686768
0.16031294 0.10519487 0.72686768
0.16198136 0.10540576 0.72832483
0.16265488 0.10540576 0.72832483
0.091238827 0.11487966 0.79889166
0.091977604 0.11487966 0.79889166
0.092716381 0.11487966 0.79889166
0.12134026 0.10511649 0.73099703
0.14773338 0.1037135 0.7212404
0.15881853 0.10442403 0.72618151
0.16198136 0.10473224 0.72832483
0.16265488 0.10473224 0.72832483
0.12134026 0.1044405 0.73099703
0.16198136 0.10405871 0.72832483
0.16265488 0.10405871 0.72832483
0.091614813 0.11386943 0.80218381
0.092356637 0.11386943 0.80218381
0.10899428 0.10759242 0.75796372
0.12134026 0.10376451 0.73099703
0.16143402 0.10346607 0.72889459
0.16210808 0.10346607 0.72889459
0.10842506 0.1070215 0.75888562
0.11360487 0.10405251 0.73783261
0.13897309 0.10068122 0.71392691
0.14736067 0.10100001 0.71618748
0.15993033 0.10269212 0.72818613
0.16060373 0.10269212 0.72818613
0.16143402 0.10279202 0.72889459
0.16210808 0.10279202 0.72889459
0.10458277 0.10741892 0.76673144
0.10529181 0.10741892 0.76673144
0.10772328 0.10631972 0.75888562
0.10842506 0.10631972 0.75888562
0.10912684 0.10631972 0.75888562
0.16060373 0.10201873 0.72818613
0.16210808 0.10211799 0.72889459
0.1030656 0.10734513 0.77129585
0.10377885 0.10734513 0.77129585
0.10387374 0.10670988 0.76673144
0.10458277 0.10670988 0.76673144
0.10529181 0.10670988 0.76673144
0.1054131 0.1061182 0.76248014
0.10772328 0.10561794 0.75888562
0.10842506 0.10561794 0.75888562
0.10912684 0.10561794 0.75888562
0.10433692 0.10647351 0.77015036
0.10504912 0.10647351 0.77015036
0.10576131 0.10647351 0.77015036
0.1059314 0.1059314 0.76622915
0.10663997 0.1059314 0.76622915
0.10734855 0.1059314 0.76622915
0.10747456 0.10536031 0.76209825
0.10817931 0.10536031 0.76209825
0.10888406 0.10536031 0.76209825
0.10958881 0.10536031 0.76209825
0.10966605 0.10476086 0.75776231
0.11036679 0.10476086 0.75776231
0.11106753 0.10476086 0.75776231
0.11163942 0.10464008 0.75688869
0.11233936 0.10464008 0.75688869
0.11303928 0.10464008 0.75688869
0.10433692 0.10576131 0.77015036
0.10504912 0.10576131 0.77015036
0.10576131 0.10576131 0.77015036
0.1059314 0.10522283 0.76622915
0.10663997 0.10522283 0.76622915
0.10734855 0.10522283 0.76622915
0.10747456 0.10465556 0.76209825
0.10817931 0.10465556 0.76209825
0.10888406 0.10465556 0.76209825
0.10958881 0.10465556 0.76209825
0.10966605 0.10406012 0.75776231
0.11036679 0.10406012 0.75776231
0.11106753 0.10406012 0.75776231
0.11163942 0.10394014 0.75688869
0.11233936 0.10394014 0.75688869
0.11303928 0.10394014 0.75688869
0.11373922 0.10394014 0.75688869
0.14179383 0.098164968 0.71483403
0.10433692 0.10504912 0.77015036
0.10504912 0.10504912 0.77015036
0.10576131 0.10504912 0.77015036
0.1059314 0.10451426 0.76622915
0.10663997 0.10451426 0.76622915
0.10734855 0.10451426 0.76622915
0.10747456 0.10395081 0.76209825
0.10817931 0.10395081 0.76209825
0.10888406 0.10395081 0.76209825
0.10958881 0.10395081 0.76209825
0.10966605 0.10335938 0.75776231
0.11036679 0.10335938 0.75776231
0.11106753 0.10335938 0.75776231
0.11163942 0.10324021 0.75688869
0.11233936 0.10324021 0.75688869
0.11303928 0.10324021 0.75688869
0.11373922 0.10324021 0.75688869
0.10414783 0.10414783 0.7687546
0.10485873 0.10414783 0.7687546
0.10556964 0.10414783 0.7687546
0.10579064 0.10366775 0.76521099
0.10649827 0.10366775 0.76521099
0.1072059 0.10366775 0.76521099
0.10791353 0.10366775 0.76521099
0.10805237 0.10312489 0.76120394
0.10962266 0.10261802 0.7574625
0.11032312 0.10261802 0.7574625
0.11102359 0.10261802 0.7574625
0.11343387 0.10226499 0.75485671
0.10414783 0.10343692 0.7687546
0.10485873 0.10343692 0.7687546
0.10556964 0.10343692 0.7687546
0.10579064 0.10296012 0.76521099
0.10649827 0.10296012 0.76521099
0.1072059 0.10296012 0.76521099
0.10791353 0.10296012 0.76521099
0.10805237 0.10242097 0.76120394
0.10875629 0.10242097 0.76120394
0.10962266 0.10191756 0.7574625
0.11032312 0.10191756 0.7574625
0.11102359 0.10191756 0.7574625
0.10256607 0.10328081 0.77290648
0.10328081 0.10328081 0.77290648
0.10399556 0.10328081 0.77290648
0.10414783 0.10272601 0.7687546
0.10485873 0.10272601 0.7687546
0.10556964 0.10272601 0.7687546
0.10579064 0.10225249 0.76521099
0.10649827 0.10225249 0.76521099
0.1072059 0.10225249 0.76521099
0.10791353 0.10225249 0.76521099
0.10805237 0.10171705 0.76120394
0.10875629 0.10171705 0.76120394
0.10946021 0.10171705 0.76120394
0.10962266 0.10121709 0.7574625
0.11032312 0.10121709 0.7574625
0.15705273 0.099754378 0.74651623
0.15774307 0.099754378 0.74651623
0.10458604 0.10244435 0.77198923
0.10627607 0.10201081 0.76872224
0.10698695 0.10201081 0.76872224
0.10769783 0.10201081 0.76872224
0.10787411 0.10150777 0.76493144
0.10858148 0.10150777 0.76493144
0.1096236 0.1011639 0.76234019
0.11032858 0.1011639 0.76234019
0.11103355 0.1011639 0.76234019
0.11173853 0.1011639 0.76234019
0.11198737 0.10075353 0.75924772
0.15774307 0.099064037 0.74651623
0.10458604 0.10173045 0.77198923
0.10529994 0.10173045 0.77198923
0.10627607 0.10129993 0.76872224
0.10698695 0.10129993 0.76872224
0.10769783 0.10129993 0.76872224
0.1096236 0.10045893 0.76234019
0.11032858 0.10045893 0.76234019
0.11103355 0.10045893 0.76234019
0.11342284 0.099463105 0.75478333
0.11481882 0.099463105 0.75478333
0.1155168 0.099463105 0.75478333
0.10458604 0.10101655 0.77198923
0.10529994 0.10101655 0.77198923
0.10601383 0.10101655 0.77198923
0.10627607 0.10058906 0.76872224
0.10698695 0.10058906 0.76872224
0.11342284 0.09876512 0.75478333
0.11412083 0.09876512 0.75478333
0.1155168 0.09876512 0.75478333
0.15216468 0.097206794 0.74287426
0.15285166 0.097206794 0.74287426
0.15484245 0.09759558 0.74584544
0.15553217 0.09759558 0.74584544
0.15729114 0.098263562 0.75095034
0.16259542 0.099383377 0.75950819
0.10421943 0.099951059 0.76928312
0.10493083 0.099951059 0.76928312
0.10564222 0.099951059 0.76928312
0.10593342 0.099556163 0.76624376
0.10664201 0.099556163 0.76624376
0.1073506 0.099556163 0.76624376
0.11142486 0.098770924 0.76020014
0.11341581 0.098061055 0.75473654
0.11411376 0.098061055 0.75473654
0.1148117 0.098061055 0.75473654
0.15285166 0.09651982 0.74287426
0.15553217 0.096905857 0.74584544
0.15729114 0.097569123 0.75095034
0.15798558 0.097569123 0.75095034
0.16259542 0.098681025 0.75950819
0.10421943 0.099239662 0.76928312
0.10493083 0.099239662 0.76928312
0.10564222 0.099239662 0.76928312
0.10593342 0.098847575 0.76624376
0.10664201 0.098847575 0.76624376
0.1073506 0.098847575 0.76624376
0.11142486 0.098067932 0.76020014
0.11341581 0.097363114 0.75473654
0.11411376 0.097363114 0.75473654
0.1148117 0.097363114 0.75473654
0.15285166 0.095832847 0.74287426
0.15729114 0.096874684 0.75095034
0.15798558 0.096874684 0.75095034
0.16259542 0.097978666 0.75950819
0.16329777 0.097978666 0.75950819
0.10421943 0.098528266 0.76928312
0.10493083 0.098528266 0.76928312
0.10564222 0.098528266 0.76928312
0.10593342 0.098138988 0.76624376
0.10664201 0.098138988 0.76624376
0.1073506 0.098138988 0.76624376
0.11072186 0.097364932 0.76020014
0.11142486 0.097364932 0.76020014
0.11163767 0.096939288 0.75687683
0.11233759 0.096939288 0.75687683
0.11303751 0.096939288 0.75687683
0.11411376 0.096665166 0.75473654
0.14610571 0.095226549 0.74350417
0.14679326 0.095226549 0.74350417
0.14847413 0.09542305 0.74503839
0.1491631 0.09542305 0.74503839
0.15772268 0.096020184 0.74970067
0.15958287 0.096727476 0.75522304
0.16360201 0.097878531 0.76421016
0.16430871 0.097878531 0.76421016
0.10490926 0.098464325 0.77437502
0.10633896 0.097803392 0.76917714
0.10705026 0.097803392 0.76917714
0.10776156 0.097803392 0.76917714
0.1149952 0.096708499 0.76056629
0.11569853 0.096708499 0.76056629
0.14610571 0.094538994 0.74350417
0.14679326 0.094538994 0.74350417
0.14748082 0.094538994 0.74350417
0.15958287 0.09602908 0.75522304
0.16360201 0.097171828 0.76421016
0.16430871 0.097171828 0.76421016
0.16938613 0.098898485 0.77778953
0.1701054 0.098898485 0.77778953
0.10633896 0.097092099 0.76917714
0.10705026 0.097092099 0.76917714
0.10776156 0.097092099 0.76917714
0.10788005 0.096561484 0.76497358
0.10858746 0.096561484 0.76497358
0.10929487 0.096561484 0.76497358
0.1149952 0.096005164 0.76056629
0.14610571 0.093851432 0.74350417
0.14679326 0.093851432 0.74350417
0.14748082 0.093851432 0.74350417
0.16360201 0.096465126 0.76421016
0.16430871 0.096465126 0.76421016
0.10630593 0.096350856 0.76893818
0.107017 0.096350856 0.76893818
0.10772808 0.096350856 0.76893818
0.10766701 0.095664784 0.7634629
0.10837302 0.095664784 0.7634629
0.11159403 0.095400572 0.76135433
0.11206292 0.095200792 0.75975996
0.11276551 0.095200792 0.75975996
0.1134681 0.095200792 0.75975996
0.11539246 0.095049717 0.75855428
0.14613596 0.09318316 0.74365807
0.14682364 0.09318316 0.74365807
0.14751135 0.09318316 0.74365807
0.15483223 0.093451083 0.7457962
0.1555219 0.093451083 0.7457962
0.15794373 0.094071984 0.75075138
0.16298686 0.095398359 0.76133668
0.16369091 0.095398359 0.76133668
0.10094552 0.097327404 0.78250659
0.10766701 0.094958767 0.7634629
0.10837302 0.094958767 0.7634629
0.10907903 0.094958767 0.7634629
0.11088996 0.094696507 0.76135433
0.11206292 0.094498202 0.75975996
0.1134681 0.094498202 0.75975996
0.11398951 0.094348244 0.75855428
0.11469098 0.094348244 0.75855428
0.11539246 0.094348244 0.75855428
0.13462231 0.091679499 0.73709774
0.13540335 0.091746852 0.73763925
0.14682364 0.092495464 0.74365807
0.14751135 0.092495464 0.74365807
0.15414254 0.092761405 0.7457962
0.15483223 0.092761405 0.7457962
0.1555219 0.092761405 0.7457962
0.15794373 0.093377724 0.75075138
0.16298686 0.094694316 0.76133668
0.16369091 0.094694316 0.76133668
0.10094552 0.096603781 0.78250659
