# .PCD v0.7 - Point Cloud Data file format
VERSION 0.7
FIELDS x y z
SIZE 4 4 4
TYPE F F F
COUNT 1 1 1
WIDTH 1407
HEIGHT 1
VIEWPOINT 0 0 0 1 0 0 0
POINTS 1407
DATA ascii
0.069794968 0.045588624 0.87253565
0.070601851 0.045588624 0.87253565
0.071448818 0.045614216 0.87302548
0.071905747 0.045393016 0.86879182
0.072709166 0.045393016 0.86879182
0.073512577 0.045393016 0.86879182
0.074315995 0.045393016 0.86879182
0.075119413 0.045393016 0.86879182
0.075969517 0.045420926 0.86932606
0.076773427 0.045420926 0.86932606
0.077577338 0.045420926 0.86932606
0.20342122 0.045518018 0.87118429
0.20422685 0.045518018 0.87118429
0.20503248 0.045518018 0.87118429
0.20549551 0.045442257 0.86973429
0.20987158 0.045345102 0.8678748
0.21067414 0.045345102 0.8678748
0.21147671 0.045345102 0.8678748
0.21227928 0.045345102 0.8678748
0.21308185 0.045345102 0.8678748
0.23450264 0.045452483 0.86993003
0.24103047 0.045469854 0.87026244
0.24183524 0.045469854 0.87026244
0.24255943 0.045454752 0.86997342
0.24336393 0.045454752 0.86997342
0.24416846 0.045454752 0.86997342
0.24491055 0.045443173 0.86975181
0.24571484 0.045443173 0.86975181
0.24924234 0.045499813 0.8708359
0.24990983 0.045474734 0.8703559
0.25071469 0.045474734 0.8703559
0.25151956 0.045474734 0.8703559
0.25229263 0.045469008 0.87024629
0.25699157 0.045446087 0.8698076
0.26177707 0.045439035 0.8696726
0.26258132 0.045439035 0.8696726
0.26338553 0.045439035 0.8696726
0.26278493 0.045197409 0.86504805
0.26358488 0.045197409 0.86504805
0.26438484 0.045197409 0.86504805
0.26518479 0.045197409 0.86504805
0.26598474 0.045197409 0.86504805
0.26697943 0.045230396 0.86567944
0.26777998 0.045230396 0.86567944
0.2685805 0.045230396 0.86567944
0.26910353 0.045183804 0.86478764
0.26990324 0.045183804 0.86478764
0.27070296 0.045183804 0.86478764
0.27277869 0.045130301 0.86376363
0.27352771 0.045122087 0.86360645
0.27432629 0.045122087 0.86360645
0.27512494 0.045122087 0.86360645
0.27573898 0.045091905 0.86302876
0.27653706 0.045091905 0.86302876
0.28907475 0.045055788 0.86233753
0.28987217 0.045055788 0.86233753
0.29199657 0.04513764 0.86390412
0.29279548 0.04513764 0.86390412
0.29359436 0.04513764 0.86390412
0.29471946 0.045187648 0.86486125
0.2955192 0.045187648 0.86486125
0.29646459 0.045209851 0.86528617
0.29674929 0.045131456 0.86378574
0.29754809 0.045131456 0.86378574
0.29834688 0.045131456 0.86378574
0.29897514 0.045105729 0.86329335
0.29977345 0.045105729 0.86329335
0.3005718 0.045105729 0.86329335
0.30430013 0.045066733 0.86254698
0.30548385 0.04512376 0.86363846
0.30628249 0.04512376 0.86363846
0.30708116 0.04512376 0.86363846
0.31271225 0.044115461 0.84434032
0.31465477 0.044168931 0.84536368
0.31543651 0.044168931 0.84536368
0.31663984 0.044227816 0.84649068
0.31742263 0.044227816 0.84649068
0.31820545 0.044227816 0.84649068
0.32448217 0.043598674 0.83444935
0.32525381 0.043598674 0.83444935
0.32602549 0.043598674 0.83444935
0.32679713 0.043598674 0.83444935
0.3275688 0.043598674 0.83444935
0.3295289 0.043756481 0.8374697
0.35803938 0.043363824 0.8299545
0.37907967 0.044574402 0.85312414
0.37986857 0.044574402 0.85312414
0.38168859 0.044602703 0.85366577
0.40093344 0.045080081 0.86280245
0.40331095 0.045078278 0.86276793
0.44082978 0.045080326 0.86280721
0.44162762 0.045080326 0.86280721
0.44245398 0.045083232 0.86286277
0.44287437 0.045044828 0.86212778
0.44367164 0.045044828 0.86212778
0.44446886 0.045044828 0.86212778
0.4471896 0.045077987 0.86276239
0.44798741 0.045077987 0.86276239
0.44878525 0.045077987 0.86276239
0.44969279 0.045088984 0.86297286
0.45030674 0.045070559 0.86262023
0.45110443 0.045070559 0.86262023
0.45190215 0.045070559 0.86262023
0.45232245 0.045032986 0.8619011
0.46230617 0.045073856 0.8626833
0.46310395 0.045073856 0.8626833
0.46418378 0.045101263 0.86320788
0.46498203 0.045101263 0.86320788
0.46578029 0.045101263 0.86320788
0.46590516 0.045036167 0.86196202
0.46829644 0.045036167 0.86196202
0.46909356 0.045036167 0.86196202
0.47003248 0.045049764 0.86222225
0.47053614 0.045021664 0.86168444
0.471333 0.045021664 0.86168444
0.47212988 0.045021664 0.86168444
0.47292668 0.045021664 0.86168444
0.47372353 0.045021664 0.86168444
0.47500795 0.045067925 0.86256981
0.47467342 0.044960681 0.86051726
0.47546914 0.044960681 0.86051726
0.47626492 0.044960681 0.86051726
0.47706068 0.044960681 0.86051726
0.47785646 0.044960681 0.86051726
0.47870168 0.044965331 0.86060625
0.47949755 0.044965331 0.86060625
0.48029342 0.044965331 0.86060625
0.48135695 0.044990353 0.86108512
0.48215321 0.044990353 0.86108512
0.48294953 0.044990353 0.86108512
0.4880172 0.045164574 0.86441964
0.48879656 0.045162726 0.86438423
0.48959592 0.045162726 0.86438423
0.49039522 0.045162726 0.86438423
0.49058598 0.045106769 0.86331326
0.49373665 0.045102865 0.86323851
0.49412352 0.04506534 0.86252034
0.49492115 0.04506534 0.86252034
0.49571872 0.04506534 0.86252034
0.49651635 0.04506534 0.86252034
0.49731398 0.04506534 0.86252034
0.49861076 0.045110498 0.86338466
0.49940914 0.045110498 0.86338466
0.51071626 0.04505147 0.86225492
0.51151359 0.04505147 0.86225492
0.51231098 0.04505147 0.86225492
0.51310837 0.04505147 0.86225492
0.51390576 0.04505147 0.86225492
0.51477122 0.045057435 0.86236906
0.51536417 0.045039561 0.86202693
0.51616132 0.045039561 0.86202693
0.51695848 0.045039561 0.86202693
0.51747358 0.045015022 0.8615573
0.51827031 0.045015022 0.8615573
0.51906705 0.045015022 0.8615573
0.51986378 0.045015022 0.8615573
0.52066046 0.045015022 0.8615573
0.52147514 0.045016572 0.86158699
0.52227193 0.045016572 0.86158699
0.52306873 0.045016572 0.86158699
0.52437919 0.045060724 0.862432
0.52515495 0.045058854 0.86239624
0.52595246 0.045058854 0.86239624
0.52675003 0.045058854 0.86239624
0.5305714 0.045112543 0.86342376
0.53140789 0.045115773 0.86348557
0.53220642 0.045115773 0.86348557
0.53300494 0.045115773 0.86348557
0.53507584 0.045223314 0.86554384
0.53469962 0.045124017 0.86364335
0.53549826 0.045124017 0.86364335
0.5362969 0.045124017 0.86364335
0.53709561 0.045124017 0.86364335
0.53789419 0.045124017 0.86364335
0.53911936 0.045159739 0.86432707
0.53884327 0.045069791 0.86260557
0.53964096 0.045069791 0.86260557
0.54043865 0.045069791 0.86260557
0.54123634 0.045069791 0.86260557
0.54203409 0.045069791 0.86260557
0.54870433 0.045159206 0.86431688
0.54950362 0.045159206 0.86431688
0.55030292 0.045159206 0.86431688
0.55110216 0.045159206 0.86431688
0.55164236 0.045138009 0.86391115
0.5524413 0.045138009 0.86391115
0.55324018 0.045138009 0.86391115
0.55294985 0.045049269 0.86221278
0.55374724 0.045049269 0.86221278
0.55454457 0.045049269 0.86221278
0.5553419 0.045049269 0.86221278
0.55613917 0.045049269 0.86221278
0.55712795 0.045064751 0.86250907
0.55792552 0.045064751 0.86250907
0.55872315 0.045064751 0.86250907
0.55979764 0.045087051 0.8629359
0.56059563 0.045087051 0.8629359
0.56139368 0.045087051 0.8629359
0.56304902 0.045155812 0.86425191
0.5638482 0.045155812 0.86425191
0.56464744 0.045155812 0.86425191
0.56476104 0.045101061 0.863204
0.56555933 0.045101061 0.863204
0.57026249 0.045094233 0.86307335
0.58012342 0.045366053 0.86827576
0.58092636 0.045366053 0.86827576
0.58287531 0.045205846 0.86520952
0.58367544 0.045205846 0.86520952
0.58670974 0.04519305 0.8649646
0.58750963 0.04519305 0.8649646
0.58830953 0.04519305 0.8649646
0.59638727 0.045259751 0.86624122
0.59718835 0.045259751 0.86624122
0.59798944 0.045259751 0.86624122
0.5991112 0.045283988 0.86670512
0.59927762 0.045236055 0.86578774
0.60007828 0.045236055 0.86578774
0.60087895 0.045236055 0.86578774
0.60167956 0.045236055 0.86578774
0.59805316 0.044903662 0.85942596
0.59884793 0.044903662 0.85942596
0.59964269 0.044903662 0.85942596
0.60043746 0.044903662 0.85942596
0.60123223 0.044903662 0.85942596
0.6026051 0.044946786 0.86025131
0.60340065 0.044946786 0.86025131
0.60419619 0.044946786 0.86025131
0.6052016 0.044962384 0.86054981
0.60599738 0.044962384 0.86054981
0.60679322 0.044962384 0.86054981
0.60668314 0.044895343 0.85926676
0.60747766 0.044895343 0.85926676
0.60827231 0.044895343 0.85926676
0.60906696 0.044895343 0.85926676
0.60900652 0.044832401 0.85806203
0.60979998 0.044832401 0.85806203
0.61059344 0.044832401 0.85806203
0.61138695 0.044832401 0.85806203
0.61218047 0.044832401 0.85806203
0.61340094 0.04486363 0.85865974
0.61419499 0.04486363 0.85865974
0.61578077 0.044921387 0.85976517
0.61657584 0.044921387 0.85976517
0.6173709 0.044921387 0.85976517
0.61816597 0.044921387 0.85976517
0.61896104 0.044921387 0.85976517
0.6197561 0.044921387 0.85976517
0.62171686 0.045005769 0.86138022
0.62235671 0.04499444 0.86116338
0.62315309 0.04499444 0.86116338
0.62394947 0.04499444 0.86116338
0.62460142 0.044984046 0.86096442
0.62539762 0.044984046 0.86096442
0.62619382 0.044984046 0.86096442
0.62699002 0.044984046 0.86096442
0.63313216 0.045138132 0.86391354
0.6339311 0.045138132 0.86391354
0.63473004 0.045138132 0.86391354
0.00040079418 0.044488151 0.86681521
0.0012023825 0.044488151 0.86681521
0.0020039708 0.044488151 0.86681521
0.0028055592 0.044488151 0.86681521
0.0036071474 0.044488151 0.86681521
0.0044107367 0.044508345 0.86720866
0.0052126888 0.044508345 0.86720866
0.0060166586 0.044523273 0.86749953
0.0068188794 0.044523273 0.86749953
0.0076211006 0.044523273 0.86749953
0.0084264856 0.044539995 0.86782533
0.0092233075 0.044512484 0.8672893
0.010025335 0.044512484 0.8672893
0.010827361 0.044512484 0.8672893
0.011623694 0.044490691 0.86686468
0.012425328 0.044490691 0.86686468
0.013226963 0.044490691 0.86686468
0.01401438 0.044445608 0.86598629
0.015616024 0.044445608 0.86598629
0.016416846 0.044445608 0.86598629
0.030078895 0.044516768 0.86737275
0.030880999 0.044516768 0.86737275
0.031683102 0.044516768 0.86737275
0.032485206 0.044516768 0.86737275
0.033287313 0.044516768 0.86737275
0.034170967 0.044623263 0.86944777
0.034965433 0.04461107 0.86921018
0.035769235 0.04461107 0.86921018
0.036573038 0.04461107 0.86921018
0.037376843 0.04461107 0.86921018
0.038180646 0.04461107 0.86921018
0.038989466 0.044616811 0.86932206
0.039773669 0.044594724 0.86889166
0.040577181 0.044594724 0.86889166
0.041380689 0.044594724 0.86889166
0.042180076 0.044590365 0.86880678
0.042983506 0.044590365 0.86880678
0.043786936 0.044590365 0.86880678
0.044590365 0.044590365 0.86880678
0.045393795 0.044590365 0.86880678
0.046248067 0.044639438 0.8697629
0.04705238 0.044639438 0.8697629
0.047856696 0.044639438 0.8697629
0.05176685 0.044543568 0.86789495
0.052569438 0.044543568 0.86789495
0.053372022 0.044543568 0.86789495
0.054174609 0.044543568 0.86789495
0.055049773 0.044602372 0.86904073
0.055842452 0.044593614 0.86887008
0.056645941 0.044593614 0.86887008
0.05744943 0.044593614 0.86887008
0.058252919 0.044593614 0.86887008
0.059056405 0.044593614 0.86887008
0.059898619 0.044622462 0.86943215
0.060702626 0.044622462 0.86943215
0.061506636 0.044622462 0.86943215
0.062369958 0.044664938 0.87025976
0.063145973 0.044644605 0.86986357
0.063950375 0.044644605 0.86986357
0.064754784 0.044644605 0.86986357
0.065530367 0.044624973 0.86948109
0.066334419 0.044624973 0.86948109
0.067138471 0.044624973 0.86948109
0.067860223 0.044570919 0.86842787
0.068663307 0.044570919 0.86842787
0.069444507 0.044556882 0.86815435
0.07024733 0.044556882 0.86815435
0.07105016 0.044556882 0.86815435
0.071852989 0.044556882 0.86815435
0.072655812 0.044556882 0.86815435
0.073512577 0.044589598 0.86879182
0.074315995 0.044589598 0.86879182
0.075119413 0.044589598 0.86879182
0.075969517 0.044617016 0.86932606
0.076773427 0.044617016 0.86932606
0.19975281 0.044433992 0.86575997
0.20055342 0.044433992 0.86575997
0.20135403 0.044433992 0.86575997
0.20185514 0.044368159 0.86447728
0.20265457 0.044368159 0.86447728
0.20345399 0.044368159 0.86447728
0.2040942 0.044333573 0.86380339
0.20489299 0.044333573 0.86380339
0.2056918 0.044333573 0.86380339
0.20649061 0.044333573 0.86380339
0.20810224 0.044336561 0.86386162
0.20880255 0.044315647 0.8634541
0.20960103 0.044315647 0.8634541
0.21039951 0.044315647 0.8634541
0.21119799 0.044315647 0.8634541
0.21199647 0.044315647 0.8634541
0.21307476 0.044373918 0.86458945
0.21387428 0.044373918 0.86458945
0.21467382 0.044373918 0.86458945
0.21585625 0.044452772 0.86612588
0.21651943 0.044424508 0.86557513
0.21731989 0.044424508 0.86557513
0.21812032 0.044424508 0.86557513
0.21892077 0.044424508 0.86557513
0.2197212 0.044424508 0.86557513
0.2203635 0.044392645 0.86495435
0.22116336 0.044392645 0.86495435
0.22196324 0.044392645 0.86495435
0.22276309 0.044392645 0.86495435
0.22483325 0.044485722 0.86676788
0.22692992 0.044425432 0.86559319
0.22773036 0.044425432 0.86559319
0.22853084 0.044425432 0.86559319
0.2293746 0.044433825 0.86575669
0.23160414 0.044400793 0.86511308
0.23240414 0.044400793 0.86511308
0.23320417 0.044400793 0.86511308
0.23434964 0.044466343 0.86639029
0.23515084 0.044466343 0.86639029
0.23595203 0.044466343 0.86639029
0.23682916 0.044480603 0.86666811
0.23734111 0.044426411 0.86561227
0.2381416 0.044426411 0.86561227
0.24386027 0.044301953 0.86318725
0.24465853 0.044301953 0.86318725
0.24705321 0.044301953 0.86318725
0.2480564 0.044338584 0.86390102
0.24885528 0.044338584 0.86390102
0.24965419 0.044338584 0.86390102
0.25045308 0.044338584 0.86390102
0.25125197 0.044338584 0.86390102
0.25233734 0.044388976 0.86488289
0.25298432 0.044362176 0.86436069
0.25378361 0.044362176 0.86436069
0.25458294 0.044362176 0.86436069
0.25534806 0.044356234 0.86424494
0.25614727 0.044356234 0.86424494
0.25694647 0.044356234 0.86424494
0.25766474 0.044342306 0.8639735
0.25846368 0.044342306 0.8639735
0.25926265 0.044342306 0.8639735
0.26006162 0.044342306 0.8639735
0.26086059 0.044342306 0.8639735
0.26177883 0.044362523 0.86436743
0.26257816 0.044362523 0.86436743
0.26337749 0.044362523 0.86436743
0.26438484 0.044397455 0.86504805
0.26518479 0.044397455 0.86504805
0.26598474 0.044397455 0.86504805
0.26697943 0.044429861 0.86567944
0.26777998 0.044429861 0.86567944
0.2685805 0.044429861 0.86567944
0.26910353 0.044384088 0.86478764
0.26990324 0.044384088 0.86478764
0.27070296 0.044384088 0.86478764
0.27277869 0.044331532 0.86376363
0.27352771 0.044323467 0.86360645
0.27432629 0.044323467 0.86360645
0.27512494 0.044323467 0.86360645
0.27573898 0.044293817 0.86302876
0.27653706 0.044293817 0.86302876
0.29199657 0.044338744 0.86390412
0.29279548 0.044338744 0.86390412
0.29471946 0.044387866 0.86486125
0.2955192 0.044387866 0.86486125
0.29646459 0.044409677 0.86528617
0.29674929 0.044332668 0.86378574
0.29754809 0.044332668 0.86378574
0.29834688 0.044332668 0.86378574
0.29897514 0.044307396 0.86329335
0.29977345 0.044307396 0.86329335
0.30548385 0.04432511 0.86363846
0.30628249 0.04432511 0.86363846
0.30708116 0.04432511 0.86363846
0.31271225 0.043334659 0.84434032
0.31387302 0.043387178 0.84536368
0.31465477 0.043387178 0.84536368
0.31543651 0.043387178 0.84536368
0.31663984 0.043445021 0.84649068
0.31742263 0.043445021 0.84649068
0.31820545 0.043445021 0.84649068
0.31995669 0.043576926 0.84906071
0.32448217 0.042827018 0.83444935
0.32525381 0.042827018 0.83444935
0.32602549 0.042827018 0.83444935
0.32679713 0.042827018 0.83444935
0.3275688 0.042827018 0.83444935
0.3295289 0.042982031 0.8374697
0.40283155 0.044053502 0.8583464
0.44162762 0.044282448 0.86280721
0.44245398 0.044285297 0.86286277
0.44287437 0.044247575 0.86212778
0.44367164 0.044247575 0.86212778
0.44446886 0.044247575 0.86212778
0.4471896 0.044280145 0.86276239
0.44798741 0.044280145 0.86276239
0.44878525 0.044280145 0.86276239
0.44969279 0.044290949 0.86297286
0.45030674 0.044272851 0.86262023
0.45110443 0.044272851 0.86262023
0.45190215 0.044272851 0.86262023
0.45232245 0.044235941 0.8619011
0.45311952 0.044235941 0.8619011
0.46230617 0.044276085 0.8626833
0.46310395 0.044276085 0.8626833
0.46418378 0.044303011 0.86320788
0.46498203 0.044303011 0.86320788
0.46578029 0.044303011 0.86320788
0.46590516 0.044239067 0.86196202
0.46670222 0.044239067 0.86196202
0.46749932 0.044239067 0.86196202
0.46829644 0.044239067 0.86196202
0.46909356 0.044239067 0.86196202
0.47003248 0.044252425 0.86222225
0.47053614 0.044224821 0.86168444
0.471333 0.044224821 0.86168444
0.47212988 0.044224821 0.86168444
0.47292668 0.044224821 0.86168444
0.47372353 0.044224821 0.86168444
0.47500795 0.044270262 0.86256981
0.47467342 0.044164918 0.86051726
0.47546914 0.044164918 0.86051726
0.47626492 0.044164918 0.86051726
0.47706068 0.044164918 0.86051726
0.47785646 0.044164918 0.86051726
0.47870168 0.044169486 0.86060625
0.47949755 0.044169486 0.86060625
0.48029342 0.044169486 0.86060625
0.48135695 0.044194061 0.86108512
0.48215321 0.044194061 0.86108512
0.48294953 0.044194061 0.86108512
0.4880172 0.044365201 0.86441964
0.48879656 0.044363383 0.86438423
0.48959592 0.044363383 0.86438423
0.49039522 0.044363383 0.86438423
0.49058598 0.044308417 0.86331326
0.49138436 0.044308417 0.86331326
0.49373665 0.044304583 0.86323851
0.49412352 0.044267721 0.86252034
0.49492115 0.044267721 0.86252034
0.49571872 0.044267721 0.86252034
0.49651635 0.044267721 0.86252034
0.49731398 0.044267721 0.86252034
0.49861076 0.044312082 0.86338466
0.49940914 0.044312082 0.86338466
0.50020754 0.044312082 0.86338466
0.51055676 0.044309463 0.86333358
0.51071626 0.044254102 0.86225492
0.51151359 0.044254102 0.86225492
0.51231098 0.044254102 0.86225492
0.51310837 0.044254102 0.86225492
0.51390576 0.044254102 0.86225492
0.51477122 0.044259958 0.86236906
0.51536417 0.044242401 0.86202693
0.51616132 0.044242401 0.86202693
0.51695848 0.044242401 0.86202693
0.51747358 0.044218298 0.8615573
0.51827031 0.044218298 0.8615573
0.51906705 0.044218298 0.8615573
0.51986378 0.044218298 0.8615573
0.52066046 0.044218298 0.8615573
0.52147514 0.044219822 0.86158699
0.52227193 0.044219822 0.86158699
0.52306873 0.044219822 0.86158699
0.52437919 0.044263188 0.862432
0.52515495 0.044261355 0.86239624
0.52595246 0.044261355 0.86239624
0.52675003 0.044261355 0.86239624
0.52754748 0.044261355 0.86239624
0.52834499 0.044261355 0.86239624
0.52977294 0.04431409 0.86342376
0.5305714 0.04431409 0.86342376
0.53140789 0.044317264 0.86348557
0.53220642 0.044317264 0.86348557
0.53300494 0.044317264 0.86348557
0.53507584 0.044422898 0.86554384
0.53469962 0.044325359 0.86364335
0.53549826 0.044325359 0.86364335
0.5362969 0.044325359 0.86364335
0.53709561 0.044325359 0.86364335
0.53789419 0.044325359 0.86364335
0.53911936 0.044360451 0.86432707
0.53884327 0.044272099 0.86260557
0.53964096 0.044272099 0.86260557
0.54043865 0.044272099 0.86260557
0.54123634 0.044272099 0.86260557
0.54203409 0.044272099 0.86260557
0.54346651 0.044323865 0.8636142
0.54331356 0.044052452 0.85832596
0.54410732 0.044052452 0.85832596
0.54490101 0.044052452 0.85832596
0.55237961 0.044079181 0.85884672
0.55317384 0.044079181 0.85884672
0.55396807 0.044079181 0.85884672
0.55500358 0.044098355 0.85922033
0.55557835 0.044080913 0.85888052
0.55637264 0.044080913 0.85888052
0.55716687 0.044080913 0.85888052
0.55796111 0.044080913 0.85888052
0.5587554 0.044080913 0.85888052
0.55964565 0.044088479 0.85902792
0.56044 0.044088479 0.85902792
0.56123441 0.044088479 0.85902792
0.56225801 0.044106457 0.85937822
0.56245643 0.044059746 0.85846812
0.56325024 0.044059746 0.85846812
0.56404418 0.044059746 0.85846812
0.56455725 0.044037849 0.85804141
0.56535077 0.044037849 0.85804141
0.56614423 0.044037849 0.85804141
0.56693769 0.044037849 0.85804141
0.5677312 0.044037849 0.85804141
0.56856591 0.044041049 0.85810375
0.56935948 0.044041049 0.85810375
0.570153 0.044041049 0.85810375
0.57546616 0.044266626 0.862499
0.57626373 0.044266626 0.862499
0.57706136 0.044266626 0.862499
0.57808322 0.044283807 0.86283374
0.57774979 0.044197265 0.86114752
0.57854617 0.044197265 0.86114752
0.57934254 0.044197265 0.86114752
0.57883286 0.04409777 0.85920894
0.57962745 0.04409777 0.85920894
0.58042198 0.04409777 0.85920894
0.58121657 0.04409777 0.85920894
0.5820111 0.04409777 0.85920894
0.58367378 0.044163458 0.86048883
0.58446956 0.044163458 0.86048883
0.58526528 0.044163458 0.86048883
0.58687299 0.044224646 0.86168104
0.58766985 0.044224646 0.86168104
0.5884667 0.044224646 0.86168104
0.58940506 0.044235267 0.86188799
0.59020209 0.044235267 0.86188799
0.59099913 0.044235267 0.86188799
0.59179616 0.044235267 0.86188799
0.59122092 0.044132832 0.85989213
0.5920161 0.044132832 0.85989213
0.59281129 0.044132832 0.85989213
0.59360647 0.044132832 0.85989213
0.59440172 0.044132832 0.85989213
0.59520185 0.044133205 0.85989934
0.5950883 0.044065911 0.85858822
0.5958823 0.044065911 0.85858822
0.59667629 0.044065911 0.85858822
0.59747022 0.044065911 0.85858822
0.59826422 0.044065911 0.85858822
0.59964269 0.044108909 0.85942596
0.60043746 0.044108909 0.85942596
0.60123223 0.044108909 0.85942596
0.6026051 0.044151269 0.86025131
0.60340065 0.044151269 0.86025131
0.60419619 0.044151269 0.86025131
0.6052016 0.044166587 0.86054981
0.60599738 0.044166587 0.86054981
0.60679322 0.044166587 0.86054981
0.60668314 0.044100735 0.85926676
0.60747766 0.044100735 0.85926676
0.60827231 0.044100735 0.85926676
0.60906696 0.044100735 0.85926676
0.60900652 0.044038907 0.85806203
0.60979998 0.044038907 0.85806203
0.61059344 0.044038907 0.85806203
0.61138695 0.044038907 0.85806203
0.61218047 0.044038907 0.85806203
0.61340094 0.044069584 0.85865974
0.61419499 0.044069584 0.85865974
0.61578077 0.044126317 0.85976517
0.61657584 0.044126317 0.85976517
0.6173709 0.044126317 0.85976517
0.61816597 0.044126317 0.85976517
0.61896104 0.044126317 0.85976517
0.6197561 0.044126317 0.85976517
0.62171686 0.044209208 0.86138022
0.62235671 0.044198077 0.86116338
0.62315309 0.044198077 0.86116338
0.62394947 0.044198077 0.86116338
0.62460142 0.044187866 0.86096442
0.62539762 0.044187866 0.86096442
0.62619382 0.044187866 0.86096442
0.62699002 0.044187866 0.86096442
0.63313216 0.044339228 0.86391354
0.6339311 0.044339228 0.86391354
0.63473004 0.044339228 0.86391354
0.00040079418 0.043686561 0.86681521
0.0012023825 0.043686561 0.86681521
0.0020039708 0.043686561 0.86681521
0.0028055592 0.043686561 0.86681521
0.0036071474 0.043686561 0.86681521
0.0044107367 0.043706391 0.86720866
0.0052126888 0.043706391 0.86720866
0.0060166586 0.043721054 0.86749953
0.0068188794 0.043721054 0.86749953
0.0076211006 0.043721054 0.86749953
0.0084264856 0.043737471 0.86782533
0.0092233075 0.043710455 0.8672893
0.010025335 0.043710455 0.8672893
0.010827361 0.043710455 0.8672893
0.011623694 0.043689057 0.86686468
0.012425328 0.043689057 0.86686468
0.013226963 0.043689057 0.86686468
0.01401438 0.043644786 0.86598629
0.014815202 0.043644786 0.86598629
0.015616024 0.043644786 0.86598629
0.016416846 0.043644786 0.86598629
0.017217668 0.043644786 0.86598629
0.018026719 0.043664716 0.86638176
0.018827906 0.043664716 0.86638176
0.019629093 0.043664716 0.86638176
0.029302359 0.043752838 0.86813021
0.030078895 0.043714661 0.86737275
0.030880999 0.043714661 0.86737275
0.031683102 0.043714661 0.86737275
0.032485206 0.043714661 0.86737275
0.033287313 0.043714661 0.86737275
0.034170967 0.043819241 0.86944777
0.034965433 0.043807268 0.86921018
0.035769235 0.043807268 0.86921018
0.036573038 0.043807268 0.86921018
0.037376843 0.043807268 0.86921018
0.038180646 0.043807268 0.86921018
0.038989466 0.043812905 0.86932206
0.039773669 0.043791212 0.86889166
0.040577181 0.043791212 0.86889166
0.041380689 0.043791212 0.86889166
0.042180076 0.043786936 0.86880678
0.042983506 0.043786936 0.86880678
0.043786936 0.043786936 0.86880678
0.044590365 0.043786936 0.86880678
0.045393795 0.043786936 0.86880678
0.046248067 0.043835122 0.8697629
0.04705238 0.043835122 0.8697629
0.047856696 0.043835122 0.8697629
0.048661008 0.043835122 0.8697629
0.049465325 0.043835122 0.8697629
0.05176685 0.04374098 0.86789495
0.052569438 0.04374098 0.86789495
0.053372022 0.04374098 0.86789495
0.054174609 0.04374098 0.86789495
0.055049773 0.043798726 0.86904073
0.055842452 0.043790128 0.86887008
0.056645941 0.043790128 0.86887008
0.05744943 0.043790128 0.86887008
0.058252919 0.043790128 0.86887008
0.059056405 0.043790128 0.86887008
0.059898619 0.043818455 0.86943215
0.060702626 0.043818455 0.86943215
0.061506636 0.043818455 0.86943215
0.062369958 0.043860164 0.87025976
0.063145973 0.043840196 0.86986357
0.063950375 0.043840196 0.86986357
0.064754784 0.043840196 0.86986357
0.065530367 0.043820921 0.86948109
0.066334419 0.043820921 0.86948109
0.067138471 0.043820921 0.86948109
0.067860223 0.04376784 0.86842787
0.068663307 0.04376784 0.86842787
0.069444507 0.043754052 0.86815435
0.07024733 0.043754052 0.86815435
0.07105016 0.043754052 0.86815435
0.071852989 0.043754052 0.86815435
0.072655812 0.043754052 0.86815435
0.073512577 0.043786183 0.86879182
0.074315995 0.043786183 0.86879182
0.075119413 0.043786183 0.86879182
0.075969517 0.043813106 0.86932606
0.076773427 0.043813106 0.86932606
0.077577338 0.043813106 0.86932606
0.19623047 0.043562364 0.86435091
0.19733162 0.043629102 0.86567509
0.19813216 0.043629102 0.86567509
0.19914261 0.04367514 0.86658853
0.19975281 0.043633379 0.86575997
0.20055342 0.043633379 0.86575997
0.20135403 0.043633379 0.86575997
0.20185514 0.043568734 0.86447728
0.20265457 0.043568734 0.86447728
0.20345399 0.043568734 0.86447728
0.2040942 0.043534771 0.86380339
0.20489299 0.043534771 0.86380339
0.2056918 0.043534771 0.86380339
0.20649061 0.043534771 0.86380339
0.21307476 0.043574389 0.86458945
0.21387428 0.043574389 0.86458945
0.21467382 0.043574389 0.86458945
0.21585625 0.043651823 0.86612588
0.21651943 0.043624066 0.86557513
0.21731989 0.043624066 0.86557513
0.21812032 0.043624066 0.86557513
0.21892077 0.043624066 0.86557513
0.2197212 0.043624066 0.86557513
0.2203635 0.043592777 0.86495435
0.22116336 0.043592777 0.86495435
0.22196324 0.043592777 0.86495435
0.22276309 0.043592777 0.86495435
0.22483325 0.043684177 0.86676788
0.23240414 0.043600779 0.86511308
0.23320417 0.043600779 0.86511308
0.23434964 0.043665148 0.86639029
0.23515084 0.043665148 0.86639029
0.23595203 0.043665148 0.86639029
0.23682916 0.043679148 0.86666811
0.23734111 0.043625936 0.86561227
0.246255 0.043503717 0.86318725
0.24705321 0.043503717 0.86318725
0.2480564 0.043539692 0.86390102
0.24885528 0.043539692 0.86390102
0.24965419 0.043539692 0.86390102
0.25045308 0.043539692 0.86390102
0.25125197 0.043539692 0.86390102
0.25233734 0.043589175 0.86488289
0.25298432 0.043562859 0.86436069
0.25378361 0.043562859 0.86436069
0.25458294 0.043562859 0.86436069
0.25534806 0.043557025 0.86424494
0.25614727 0.043557025 0.86424494
0.25694647 0.043557025 0.86424494
0.25766474 0.043543343 0.8639735
0.25846368 0.043543343 0.8639735
0.25926265 0.043543343 0.8639735
0.26006162 0.043543343 0.8639735
0.26086059 0.043543343 0.8639735
0.26177883 0.043563198 0.86436743
0.26257816 0.043563198 0.86436743
0.26337749 0.043563198 0.86436743
0.26438484 0.043597501 0.86504805
0.26518479 0.043597501 0.86504805
0.26598474 0.043597501 0.86504805
0.26697943 0.043629322 0.86567944
0.2685805 0.043629322 0.86567944
0.27352771 0.043524846 0.86360645
0.27432629 0.043524846 0.86360645
0.27512494 0.043524846 0.86360645
0.27573898 0.04349573 0.86302876
0.27653706 0.04349573 0.86302876
0.29199657 0.043539848 0.86390412
0.29471946 0.043588087 0.86486125
0.2955192 0.043588087 0.86486125
0.29646459 0.0436095 0.86528617
0.29674929 0.04353388 0.86378574
0.29754809 0.04353388 0.86378574
0.29834688 0.04353388 0.86378574
0.29897514 0.043509066 0.86329335
0.29977345 0.043509066 0.86329335
0.30628249 0.043526459 0.86363846
0.30708116 0.043526459 0.86363846
0.3146683 0.042396594 0.84122002
0.32534927 0.041869033 0.83075231
0.39424214 0.042929463 0.85179305
0.39502981 0.042929463 0.85179305
0.40515473 0.04342366 0.86159879
0.41721636 0.043435134 0.86182642
0.41801333 0.043435134 0.86182642
0.4188973 0.043444153 0.86200541
0.41969442 0.043444153 0.86200541
0.44245398 0.043487363 0.86286277
0.44287437 0.043450322 0.86212778
0.44367164 0.043450322 0.86212778
0.44446886 0.043450322 0.86212778
0.44526613 0.043450322 0.86212778
0.44798741 0.043482304 0.86276239
0.44878525 0.043482304 0.86276239
0.44969279 0.043492913 0.86297286
0.45030674 0.04347514 0.86262023
0.45110443 0.04347514 0.86262023
0.45190215 0.04347514 0.86262023
0.45232245 0.043438897 0.8619011
0.45311952 0.043438897 0.8619011
0.46150839 0.043478318 0.8626833
0.46230617 0.043478318 0.8626833
0.46310395 0.043478318 0.8626833
0.46418378 0.043504756 0.86320788
0.46498203 0.043504756 0.86320788
0.46578029 0.043504756 0.86320788
0.46590516 0.043441966 0.86196202
0.46670222 0.043441966 0.86196202
0.46749932 0.043441966 0.86196202
0.46829644 0.043441966 0.86196202
0.46909356 0.043441966 0.86196202
0.47003248 0.043455083 0.86222225
0.47053614 0.043427978 0.86168444
0.471333 0.043427978 0.86168444
0.47212988 0.043427978 0.86168444
0.47292668 0.043427978 0.86168444
0.47372353 0.043427978 0.86168444
0.47500795 0.043472599 0.86256981
0.47467342 0.043369152 0.86051726
0.47546914 0.043369152 0.86051726
0.47626492 0.043369152 0.86051726
0.47706068 0.043369152 0.86051726
0.47785646 0.043369152 0.86051726
0.47870168 0.043373637 0.86060625
0.47949755 0.043373637 0.86060625
0.48029342 0.043373637 0.86060625
0.48135695 0.043397773 0.86108512
0.48215321 0.043397773 0.86108512
0.48294953 0.043397773 0.86108512
0.48617658 0.043544162 0.86398971
0.48697549 0.043544162 0.86398971
0.4880172 0.043565828 0.86441964
0.48879656 0.043564044 0.86438423
0.48959592 0.043564044 0.86438423
0.49039522 0.043564044 0.86438423
0.48745045 0.043231979 0.85779548
0.48824373 0.043231979 0.85779548
0.48903698 0.043231979 0.85779548
0.4898302 0.043231979 0.85779548
0.49062344 0.043231979 0.85779548
0.49151078 0.043240253 0.85795969
0.49165493 0.04318323 0.85682821
0.49244726 0.04318323 0.85682821
0.49323964 0.04318323 0.85682821
0.494032 0.04318323 0.85682821
0.49482435 0.04318323 0.85682821
0.50016034 0.043233525 0.85782617
0.50144249 0.043275721 0.85866338
0.5022366 0.043275721 0.85866338
0.5030306 0.043275721 0.85866338
0.50345564 0.043244023 0.85803449
0.50424916 0.043244023 0.85803449
0.50504261 0.043244023 0.85803449
0.50555897 0.043220337 0.85756451
0.50635201 0.043220337 0.85756451
0.50714505 0.043220337 0.85756451
0.50702143 0.043142337 0.85601687
0.50781304 0.043142337 0.85601687
0.50860465 0.043142337 0.85601687
0.50939626 0.043142337 0.85601687
0.51018786 0.043142337 0.85601687
0.5111739 0.043158758 0.85634267
0.51196581 0.043158758 0.85634267
0.51275772 0.043158758 0.85634267
0.51435685 0.043226596 0.85768867
0.5147323 0.043191548 0.85699332
0.5155248 0.043191548 0.85699332
0.51631737 0.043191548 0.85699332
0.51710987 0.043191548 0.85699332
0.51790231 0.043191548 0.85699332
0.51881862 0.043201856 0.85719782
0.51903355 0.043153819 0.85624468
0.5198254 0.043153819 0.85624468
0.52061719 0.043153819 0.85624468
0.52140898 0.043153819 0.85624468
0.52220082 0.043153819 0.85624468
0.52868545 0.043230847 0.85777301
0.52947873 0.043230847 0.85777301
0.53233922 0.043334559 0.85983086
0.53314883 0.043271203 0.85857373
0.53394282 0.043271203 0.85857373
0.53412849 0.043221977 0.85759705
0.5370568 0.043202356 0.85720772
0.53784949 0.043202356 0.85720772
0.53864223 0.043202356 0.85720772
0.53943491 0.043202356 0.85720772
0.540595 0.043231733 0.85779065
0.54138821 0.043231733 0.85779065
0.5430215 0.043298714 0.85911959
0.54331356 0.043258715 0.85832596
0.54410732 0.043258715 0.85832596
0.54490101 0.043258715 0.85832596
0.55317384 0.04328496 0.85884672
0.55396807 0.04328496 0.85884672
0.55500358 0.043303788 0.85922033
0.55557835 0.043286663 0.85888052
0.55637264 0.043286663 0.85888052
0.55716687 0.043286663 0.85888052
0.55796111 0.043286663 0.85888052
0.5587554 0.043286663 0.85888052
0.55964565 0.043294091 0.85902792
0.56044 0.043294091 0.85902792
0.56123441 0.043294091 0.85902792
0.56225801 0.043311745 0.85937822
0.56245643 0.043265879 0.85846812
0.56325024 0.043265879 0.85846812
0.56404418 0.043265879 0.85846812
0.56455725 0.043244373 0.85804141
0.56535077 0.043244373 0.85804141
0.56614423 0.043244373 0.85804141
0.56693769 0.043244373 0.85804141
0.5677312 0.043244373 0.85804141
0.56856591 0.043247513 0.85810375
0.56935948 0.043247513 0.85810375
0.57276487 0.043325033 0.85964185
0.57546616 0.04346903 0.862499
0.57626373 0.04346903 0.862499
0.57706136 0.04346903 0.862499
0.57808322 0.043485902 0.86283374
0.57774979 0.043400917 0.86114752
0.57854617 0.043400917 0.86114752
0.57934254 0.043400917 0.86114752
0.57883286 0.043303214 0.85920894
0.57962745 0.043303214 0.85920894
0.58042198 0.043303214 0.85920894
0.58121657 0.043303214 0.85920894
0.5820111 0.043303214 0.85920894
0.58367378 0.043367721 0.86048883
0.58446956 0.043367721 0.86048883
0.58526528 0.043367721 0.86048883
0.58687299 0.043427806 0.86168104
0.58766985 0.043427806 0.86168104
0.5884667 0.043427806 0.86168104
0.58940506 0.043438237 0.86188799
0.59020209 0.043438237 0.86188799
0.59099913 0.043438237 0.86188799
0.59179616 0.043438237 0.86188799
0.59122092 0.043337647 0.85989213
0.5920161 0.043337647 0.85989213
0.59281129 0.043337647 0.85989213
0.59360647 0.043337647 0.85989213
0.59440172 0.043337647 0.85989213
0.59520185 0.043338012 0.85989934
0.5950883 0.043271933 0.85858822
0.5958823 0.043271933 0.85858822
0.59667629 0.043271933 0.85858822
0.59747022 0.043271933 0.85858822
0.59826422 0.043271933 0.85858822
0.59964269 0.043314151 0.85942596
0.60043746 0.043314151 0.85942596
0.60123223 0.043314151 0.85942596
0.6026051 0.043355748 0.86025131
0.60340065 0.043355748 0.86025131
0.60419619 0.043355748 0.86025131
0.6052016 0.043370795 0.86054981
0.60599738 0.043370795 0.86054981
0.60679322 0.043370795 0.86054981
0.60668314 0.043306131 0.85926676
0.60747766 0.043306131 0.85926676
0.60827231 0.043306131 0.85926676
0.60906696 0.043306131 0.85926676
0.60900652 0.043245412 0.85806203
0.60979998 0.043245412 0.85806203
0.61059344 0.043245412 0.85806203
0.61138695 0.043245412 0.85806203
0.61218047 0.043245412 0.85806203
0.61340094 0.043275535 0.85865974
0.61419499 0.043275535 0.85865974
0.61578077 0.043331251 0.85976517
0.61657584 0.043331251 0.85976517
0.6173709 0.043331251 0.85976517
0.61816597 0.043331251 0.85976517
0.61896104 0.043331251 0.85976517
0.6197561 0.043331251 0.85976517
0.62171686 0.043412644 0.86138022
0.62235671 0.043401718 0.86116338
0.62315309 0.043401718 0.86116338
0.62394947 0.043401718 0.86116338
0.62460142 0.04339169 0.86096442
0.62539762 0.04339169 0.86096442
0.62619382 0.04339169 0.86096442
0.62699002 0.04339169 0.86096442
0.63313216 0.043540321 0.86391354
0.6339311 0.043540321 0.86391354
0.63473004 0.043540321 0.86391354
0.00040079418 0.042884976 0.86681521
0.0012023825 0.042884976 0.86681521
0.0020039708 0.042884976 0.86681521
0.0028055592 0.042884976 0.86681521
0.0036071474 0.042884976 0.86681521
0.0044107367 0.04290444 0.86720866
0.0052126888 0.04290444 0.86720866
0.0060166586 0.042918831 0.86749953
0.0068188794 0.042918831 0.86749953
0.0076211006 0.042918831 0.86749953
0.0084264856 0.04293495 0.86782533
0.0092233075 0.04290843 0.8672893
0.010025335 0.04290843 0.8672893
0.010827361 0.04290843 0.8672893
0.011623694 0.042887423 0.86686468
0.012425328 0.042887423 0.86686468
0.013226963 0.042887423 0.86686468
0.01401438 0.042843964 0.86598629
0.014815202 0.042843964 0.86598629
0.015616024 0.042843964 0.86598629
0.016416846 0.042843964 0.86598629
0.017217668 0.042843964 0.86598629
0.018026719 0.042863529 0.86638176
0.018827906 0.042863529 0.86638176
0.019629093 0.042863529 0.86638176
0.02206539 0.042927213 0.86766893
0.025290741 0.042954113 0.8682127
0.027696749 0.042950034 0.86813021
0.028499553 0.042950034 0.86813021
0.029302359 0.042950034 0.86813021
0.030078895 0.042912558 0.86737275
0.030880999 0.042912558 0.86737275
0.031683102 0.042912558 0.86737275
0.032485206 0.042912558 0.86737275
0.033287313 0.042912558 0.86737275
0.034170967 0.043015219 0.86944777
0.034965433 0.043003462 0.86921018
0.035769235 0.043003462 0.86921018
0.036573038 0.043003462 0.86921018
0.037376843 0.043003462 0.86921018
0.038180646 0.043003462 0.86921018
0.038989466 0.043008998 0.86932206
0.039773669 0.042987704 0.86889166
0.040577181 0.042987704 0.86889166
0.041380689 0.042987704 0.86889166
0.042180076 0.042983506 0.86880678
0.042983506 0.042983506 0.86880678
0.043786936 0.042983506 0.86880678
0.044590365 0.042983506 0.86880678
0.045393795 0.042983506 0.86880678
0.046248067 0.04303081 0.8697629
0.04705238 0.04303081 0.8697629
0.047856696 0.04303081 0.8697629
0.048661008 0.04303081 0.8697629
0.049465325 0.04303081 0.8697629
0.050964262 0.042938393 0.86789495
0.05176685 0.042938393 0.86789495
0.052569438 0.042938393 0.86789495
0.053372022 0.042938393 0.86789495
0.054174609 0.042938393 0.86789495
0.055049773 0.04299508 0.86904073
0.055842452 0.042986639 0.86887008
0.056645941 0.042986639 0.86887008
0.05744943 0.042986639 0.86887008
0.058252919 0.042986639 0.86887008
0.059056405 0.042986639 0.86887008
0.059898619 0.043014444 0.86943215
0.060702626 0.043014444 0.86943215
0.061506636 0.043014444 0.86943215
0.062369958 0.043055393 0.87025976
0.063145973 0.04303579 0.86986357
0.063950375 0.04303579 0.86986357
0.064754784 0.04303579 0.86986357
0.065194398 0.042796325 0.86502337
0.06599433 0.042796325 0.86502337
0.066794261 0.042796325 0.86502337
0.067466393 0.042715412 0.86338788
0.068264812 0.042715412 0.86338788
0.069063231 0.042715412 0.86338788
0.069793887 0.042673979 0.86255044
0.070591532 0.042673979 0.86255044
0.071389176 0.042673979 0.86255044
0.07218682 0.042673979 0.86255044
0.072984464 0.042673979 0.86255044
0.073903427 0.042744145 0.86396867
0.074702382 0.042744145 0.86396867
0.075501338 0.042744145 0.86396867
0.076322652 0.042756669 0.86422181
0.077121839 0.042756669 0.86422181
0.077921033 0.042756669 0.86422181
0.078720219 0.042756669 0.86422181
0.079519413 0.042756669 0.86422181
0.08116477 0.042781431 0.86472231
0.081964426 0.042781431 0.86472231
0.08567296 0.04263724 0.86180788
0.19623047 0.042763054 0.86435091
0.19733162 0.042828567 0.86567509
0.19813216 0.042828567 0.86567509
0.19914261 0.042873759 0.86658853
0.19975281 0.042832766 0.86575997
0.20055342 0.042832766 0.86575997
0.20135403 0.042832766 0.86575997
0.20185514 0.042769309 0.86447728
0.20265457 0.042769309 0.86447728
0.20345399 0.042769309 0.86447728
0.2040942 0.042735968 0.86380339
0.20489299 0.042735968 0.86380339
0.2056918 0.042735968 0.86380339
0.21585625 0.042850871 0.86612588
0.21651943 0.042823624 0.86557513
0.21731989 0.042823624 0.86557513
0.21812032 0.042823624 0.86557513
0.21892077 0.042823624 0.86557513
0.2197212 0.042823624 0.86557513
0.2203635 0.042792909 0.86495435
0.22116336 0.042792909 0.86495435
0.22196324 0.042792909 0.86495435
0.22276309 0.042792909 0.86495435
0.23434964 0.042863954 0.86639029
0.23515084 0.042863954 0.86639029
0.23595203 0.042863954 0.86639029
0.23682916 0.042877696 0.86666811
0.23734111 0.04282546 0.86561227
0.24705321 0.042705484 0.86318725
0.2480564 0.042740796 0.86390102
0.24885528 0.042740796 0.86390102
0.24965419 0.042740796 0.86390102
0.25045308 0.042740796 0.86390102
0.25125197 0.042740796 0.86390102
0.25233734 0.042789374 0.86488289
0.25298432 0.042763539 0.86436069
0.25378361 0.042763539 0.86436069
0.25458294 0.042763539 0.86436069
0.25534806 0.042757813 0.86424494
0.25614727 0.042757813 0.86424494
0.25694647 0.042757813 0.86424494
0.25702357 0.042638019 0.86182356
0.25782052 0.042638019 0.86182356
0.25861749 0.042638019 0.86182356
0.25929782 0.042618845 0.86143601
0.26009443 0.042618845 0.86143601
0.26089105 0.042618845 0.86143601
0.2616013 0.042604778 0.8611517
0.26239765 0.042604778 0.8611517
0.26319399 0.042604778 0.8611517
0.26399034 0.042604778 0.8611517
0.26478669 0.042604778 0.8611517
0.26594809 0.042663336 0.86233532
0.26674554 0.042663336 0.86233532
0.26754296 0.042663336 0.86233532
0.26854959 0.042696595 0.86300755
0.2693083 0.042690355 0.86288142
0.27424309 0.042589273 0.86083835
0.27498552 0.04258097 0.86067051
0.27578142 0.04258097 0.86067051
0.29265639 0.042604402 0.86114413
0.29353121 0.04261579 0.86137432
0.29432774 0.04261579 0.86137432
0.29512432 0.04261579 0.86137432
0.29608169 0.04263895 0.86184245
0.29631239 0.04255762 0.8601985
0.29710785 0.04255762 0.8601985
0.29790333 0.04255762 0.8601985
0.29869878 0.04255762 0.8601985
0.29949427 0.04255762 0.8601985
0.30635804 0.042738348 0.86385149
0.30715692 0.042738348 0.86385149
0.32103813 0.041840535 0.84570438
0.32534927 0.041100793 0.83075231
0.39424214 0.042141765 0.85179305
0.39502981 0.042141765 0.85179305
0.40283155 0.042465989 0.8583464
0.40515473 0.042626895 0.86159879
0.41482544 0.042638157 0.86182642
0.41562241 0.042638157 0.86182642
0.41641939 0.042638157 0.86182642
0.41721636 0.042638157 0.86182642
0.41801333 0.042638157 0.86182642
0.4188973 0.042647015 0.86200541
0.41969442 0.042647015 0.86200541
0.42049158 0.042647015 0.86200541
0.42899576 0.042384624 0.85670185
0.4449245 0.04239263 0.85686368
0.44528571 0.042351622 0.85603476
0.44607735 0.042351622 0.85603476
0.44686899 0.042351622 0.85603476
0.4686996 0.042321399 0.85542387
0.47016418 0.042382114 0.85665113
0.47095639 0.042382114 0.85665113
0.47174859 0.042382114 0.85665113
0.47256288 0.042384095 0.85669118
0.47279355 0.042333819 0.85567492
0.47358486 0.042333819 0.85567492
0.47437614 0.042333819 0.85567492
0.47464302 0.042287096 0.85473055
0.47543341 0.042287096 0.85473055
0.47622383 0.042287096 0.85473055
0.47701424 0.042287096 0.85473055
0.47937259 0.042355794 0.85611916
0.48016429 0.042355794 0.85611916
0.48222736 0.042467758 0.85838223
0.48302117 0.042467758 0.85838223
0.48381492 0.042467758 0.85838223
0.48501661 0.042503502 0.85910469
0.48567301 0.042491425 0.85886055
0.48646727 0.042491425 0.85886055
0.48726144 0.042491425 0.85886055
0.48745045 0.042438731 0.85779548
0.48824373 0.042438731 0.85779548
0.48903698 0.042438731 0.85779548
0.4898302 0.042438731 0.85779548
0.49062344 0.042438731 0.85779548
0.49151078 0.042446855 0.85795969
0.49165493 0.042390876 0.85682821
0.49244726 0.042390876 0.85682821
0.49323964 0.042390876 0.85682821
0.494032 0.042390876 0.85682821
0.49936703 0.042440251 0.85782617
0.50016034 0.042440251 0.85782617
0.50144249 0.042481668 0.85866338
0.5022366 0.042481668 0.85866338
0.5030306 0.042481668 0.85866338
0.50345564 0.042450555 0.85803449
0.50424916 0.042450555 0.85803449
0.50504261 0.042450555 0.85803449
0.50555897 0.042427305 0.85756451
0.50635201 0.042427305 0.85756451
0.50714505 0.042427305 0.85756451
0.50702143 0.042350736 0.85601687
0.50781304 0.042350736 0.85601687
0.50860465 0.042350736 0.85601687
0.50939626 0.042350736 0.85601687
0.51018786 0.042350736 0.85601687
0.5111739 0.042366855 0.85634267
0.51196581 0.042366855 0.85634267
0.51275772 0.042366855 0.85634267
0.51435685 0.042433448 0.85768867
0.5147323 0.042399045 0.85699332
0.5155248 0.042399045 0.85699332
0.51631737 0.042399045 0.85699332
0.51710987 0.042399045 0.85699332
0.51790231 0.042399045 0.85699332
0.51881862 0.042409163 0.85719782
0.51903355 0.042362008 0.85624468
0.5198254 0.042362008 0.85624468
0.52061719 0.042362008 0.85624468
0.52868545 0.04243762 0.85777301
0.53233922 0.042539429 0.85983086
0.53314883 0.042477235 0.85857373
0.53394282 0.042477235 0.85857373
0.53412849 0.042428914 0.85759705
0.5370568 0.042409651 0.85720772
0.53784949 0.042409651 0.85720772
0.53864223 0.042409651 0.85720772
0.53943491 0.042409651 0.85720772
0.540595 0.042438492 0.85779065
0.54138821 0.042438492 0.85779065
0.5430215 0.04250424 0.85911959
0.54331356 0.042464975 0.85832596
0.54410732 0.042464975 0.85832596
0.55500358 0.042509224 0.85922033
0.55557835 0.042492412 0.85888052
0.55637264 0.042492412 0.85888052
0.55716687 0.042492412 0.85888052
0.55796111 0.042492412 0.85888052
0.5587554 0.042492412 0.85888052
0.55964565 0.042499706 0.85902792
0.56044 0.042499706 0.85902792
0.56123441 0.042499706 0.85902792
0.56225801 0.042517036 0.85937822
0.56245643 0.042472009 0.85846812
0.56325024 0.042472009 0.85846812
0.56404418 0.042472009 0.85846812
0.56455725 0.042450897 0.85804141
0.56535077 0.042450897 0.85804141
0.56614423 0.042450897 0.85804141
0.56693769 0.042450897 0.85804141
0.5677312 0.042450897 0.85804141
0.56856591 0.042453982 0.85810375
0.57546616 0.042671435 0.862499
0.57626373 0.042671435 0.862499
0.57706136 0.042671435 0.862499
0.57774979 0.042604569 0.86114752
0.57934254 0.042604569 0.86114752
0.57883286 0.042508662 0.85920894
0.57962745 0.042508662 0.85920894
0.58042198 0.042508662 0.85920894
0.58121657 0.042508662 0.85920894
0.5820111 0.042508662 0.85920894
0.58367378 0.042571981 0.86048883
0.58687299 0.042630967 0.86168104
0.58766985 0.042630967 0.86168104
0.5884667 0.042630967 0.86168104
0.58940506 0.042641204 0.86188799
0.59020209 0.042641204 0.86188799
0.59099913 0.042641204 0.86188799
0.59179616 0.042641204 0.86188799
0.59122092 0.042542461 0.85989213
0.59127975 0.042375706 0.85652161
0.59207183 0.042375706 0.85652161
0.59286386 0.042375706 0.85652161
0.59326643 0.042347904 0.85595965
0.59405798 0.042347904 0.85595965
0.59484953 0.042347904 0.85595965
0.59564108 0.042347904 0.85595965
0.59643263 0.042347904 0.85595965
0.5976547 0.042378433 0.85657668
0.59844685 0.042378433 0.85657668
0.59923893 0.042378433 0.85657668
0.60007799 0.042381745 0.85664368
0.60087019 0.042381745 0.85664368
0.6016624 0.042381745 0.85664368
0.60310125 0.042427246 0.85756332
0.60313737 0.042374063 0.85648841
0.6039294 0.042374063 0.85648841
0.60472149 0.042374063 0.85648841
0.60551345 0.042374063 0.85648841
0.60630554 0.042374063 0.85648841
0.60755503 0.042405996 0.85713381
0.60692626 0.042306911 0.85513103
0.60771698 0.042306911 0.85513103
0.60850775 0.042306911 0.85513103
0.60929859 0.042306911 0.85513103
0.61008936 0.042306911 0.85513103
0.6118691 0.042375404 0.85651547
0.61168945 0.042308193 0.85515696
0.61248028 0.042308193 0.85515696
0.61327112 0.042308193 0.85515696
0.61406189 0.042308193 0.85515696
0.61485267 0.042308193 0.85515696
0.6156435 0.042308193 0.85515696
0.61643434 0.042308193 0.85515696
0.61722511 0.042308193 0.85515696
0.61856377 0.042345695 0.85591501
0.61935526 0.042345695 0.85591501
0.62014681 0.042345695 0.85591501
0.62093824 0.042345695 0.85591501
0.62172979 0.042345695 0.85591501
0.62350202 0.042412408 0.85726339
0.62429476 0.042412408 0.85726339
0.6250875 0.042412408 0.85726339
0.6270988 0.042494982 0.85893244
0.00039804389 0.041794609 0.86086708
0.0011941317 0.041794609 0.86086708
0.0019902193 0.041794609 0.86086708
0.0027863071 0.041794609 0.86086708
0.0035823949 0.041794609 0.86086708
0.0043844432 0.041851506 0.86203903
0.0051816148 0.041851506 0.86203903
0.0059787864 0.041851506 0.86203903
0.0067793792 0.041872639 0.86247432
0.0075744363 0.041858729 0.8621878
0.0083717452 0.041858729 0.8621878
0.0091690551 0.041858729 0.8621878
0.0099635432 0.041846883 0.86194378
0.010760627 0.041846883 0.86194378
0.01155771 0.041846883 0.86194378
0.012354794 0.041846883 0.86194378
0.013151878 0.041846883 0.86194378
0.013951702 0.041855108 0.86211324
0.014748942 0.041855108 0.86211324
0.015546183 0.041855108 0.86211324
0.016343422 0.041855108 0.86211324
0.017140662 0.041855108 0.86211324
0.017941888 0.041864406 0.86230475
0.018739305 0.041864406 0.86230475
0.019536722 0.041864406 0.86230475
0.020354735 0.041906808 0.86317813
0.02115296 0.041906808 0.86317813
0.021951186 0.041906808 0.86317813
0.022778625 0.041960623 0.8642866
0.023577875 0.041960623 0.8642866
0.024377124 0.041960623 0.8642866
0.025201676 0.042002793 0.86515522
0.02998429 0.041978005 0.86464465
0.041059613 0.041856889 0.86214989
0.041856889 0.041856889 0.86214989
0.04265416 0.041856889 0.86214989
0.043486036 0.041890219 0.86283642
0.044283945 0.041890219 0.86283642
0.045081854 0.041890219 0.86283642
0.04595222 0.041956373 0.86419904
0.046680979 0.041893188 0.86289757
0.047478948 0.041893188 0.86289757
0.048276912 0.041893188 0.86289757
0.049058326 0.041879058 0.86260653
0.049856022 0.041879058 0.86260653
0.050653718 0.041879058 0.86260653
0.051378101 0.041819386 0.86137742
0.052174661 0.041819386 0.86137742
0.052971222 0.041819386 0.86137742
0.053767782 0.041819386 0.86137742
0.054564338 0.041819386 0.86137742
0.055381022 0.041834585 0.86169052
0.056177869 0.041834585 0.86169052
0.05697472 0.041834585 0.86169052
0.057794478 0.041851174 0.86203223
0.058591645 0.041851174 0.86203223
0.059388809 0.041851174 0.86203223
0.060219899 0.041874766 0.86251813
